ply
format ascii 1.0
comment PCL generated
element vertex 1509
property float x
property float y
property float z
element camera 0
property float view_px
property float view_py
property float view_pz
property float x_axisx
property float x_axisy
property float x_axisz
property float y_axisx
property float y_axisy
property float y_axisz
property float z_axisx
property float z_axisy
property float z_axisz
property float focal
property float scalex
property float scaley
property float centerx
property float centery
property int viewportx
property int viewporty
property float k1
property float k2
end_header
-1.9834032 -14.222735 20.468895
-1.6009769 -14.718534 19.919872
-22.408363 5.9093056 21.83445
-21.528374 5.1808033 22.008968
-21.51564 4.6640072 22.080479
-22.169632 6.0061398 21.761883
-21.288788 6.1042957 21.76152
-19.919781 4.6191463 22.19537
-20.845188 7.1372166 21.823154
-19.789288 5.8470116 21.983189
-19.815144 5.4261475 22.048309
-18.521259 5.2075348 22.248539
-21.391129 8.9136658 22.210613
-20.960144 8.056181 22.174397
-20.249613 7.4352207 22.14864
-19.077112 7.0243454 22.04855
-18.615652 6.2874184 22.112469
-18.341663 5.251009 22.199371
-21.760365 9.9982815 22.229271
-21.511471 9.4169025 21.928097
-19.605934 7.7224941 21.70903
-19.287512 7.4011402 21.83511
4.6539249 -12.907435 19.989506
5.2124634 -13.579215 19.984909
5.7762032 -14.0452 19.888565
-21.324093 11.68969 22.756382
3.8642292 -10.789611 20.320011
4.2432137 -11.679315 20.334766
4.8070812 -12.450403 20.450958
5.6897221 -13.149324 20.501354
6.5003529 -13.629147 20.256138
7.1982422 -13.964832 19.742596
-21.417444 12.98193 22.591434
-21.25795 12.312462 22.38739
3.37957 -8.8179703 20.848938
3.513401 -9.5468035 20.665062
3.699625 -10.209903 20.208462
7.3058815 -12.951395 20.479263
7.6313858 -13.410106 20.022938
-21.573784 14.407051 22.877769
-21.382069 13.73572 22.396751
3.457819 -8.0520029 20.624027
3.5355453 -8.7393236 20.309364
7.9634438 -12.639062 20.611202
8.0766983 -12.719805 20.308311
-21.426792 15.018309 22.419327
3.7034569 -6.6289968 20.449253
3.5298576 -7.2766352 20.676514
-21.338741 16.086153 22.112244
-21.338688 15.877573 22.14463
10.684265 -9.866519 20.58622
11.865961 -10.920057 20.216507
12.484991 -11.47121 20.233768
13.085215 -12.084417 19.972038
13.897507 -12.729998 19.765896
-21.102325 19.440985 22.516819
-21.246567 18.931646 22.806988
11.149832 -10.091407 20.435307
11.706425 -10.650612 20.482323
12.422853 -11.337067 20.55669
13.378418 -12.000311 20.422325
14.328697 -12.365942 20.215549
14.983648 -12.837982 19.832767
-21.02681 20.075132 22.647751
15.191494 -12.103546 20.62344
15.660845 -12.346708 20.187607
16.210024 -12.677057 19.769978
16.168152 -11.97536 20.370407
19.374557 -8.591713 20.203403
19.903736 -9.0617857 20.103767
20.592537 -9.7965069 20.08717
21.332962 -10.50365 20.144463
22.079391 -11.098244 20.097649
22.87067 -11.606096 19.790306
23.478111 -11.944494 19.488495
23.31881 -11.404916 20.209167
24.177773 -11.635736 19.949131
24.849998 -11.875755 19.529217
24.712925 -11.260623 20.333225
25.13253 -11.571296 19.737259
-35.086685 -3.619091 22.224022
-34.557194 -4.1316357 22.202057
-33.41494 -4.6847544 22.560661
-33.06987 -5.4055424 22.610252
-33.891617 -3.5550861 22.317497
-32.068535 -4.95012 22.0877
-31.588648 -5.3796663 22.038437
-20.772875 -14.488696 21.288364
-20.089329 -15.160685 21.402283
-19.566046 -15.723683 21.180161
-35.575314 0.19860077 22.64484
-31.297327 -3.9093599 22.23531
-30.535233 -4.2883463 22.108444
-29.830233 -5.0220051 22.049648
-29.359886 -5.4493065 22.000446
-20.718616 -13.109721 21.677967
-20.360529 -13.922673 21.780838
-19.664385 -14.662254 21.821636
-18.790131 -15.098301 21.637203
-18.038805 -15.357011 21.250938
-35.366608 0.17988777 22.602291
-33.689888 -0.76299858 22.34166
-33.229843 -1.2715311 22.307514
-30.252014 -3.0720406 22.350018
-29.834915 -3.4908457 22.313972
-20.757988 -11.829085 21.808064
-20.589994 -12.553859 22.023159
-18.175632 -14.745836 21.993103
-17.462465 -14.923194 21.575611
-32.035942 -0.39909172 22.382778
-31.540709 -0.94347382 22.343807
-30.906244 -1.478528 22.272709
-30.460804 -2.6914654 22.342777
-29.622135 -3.4812784 22.261909
-28.887459 -3.9425268 22.154739
-28.189602 -4.6972408 22.101139
-27.442089 -5.1743917 21.993259
-24.910706 -6.6177006 21.979233
-20.672684 -10.368238 21.951679
-20.697548 -10.99369 21.869972
-16.584162 -14.502737 21.769321
-30.470335 -0.31015587 22.374287
-30.02504 -0.74597359 22.331509
-29.348515 -1.4583588 22.275154
-28.984829 -2.6101561 22.358395
-28.271755 -3.3076477 22.291786
-27.377913 -3.7541895 22.143997
-26.699165 -4.5015221 22.094124
-25.920799 -4.9589863 21.976089
-25.055019 -5.6711416 21.875053
-24.519405 -6.5885773 21.879738
-20.52636 -9.7276497 22.135223
-15.978601 -14.166954 21.908859
-15.634429 -13.981447 21.53648
-30.593542 -0.018695831 22.360516
-28.466532 -0.75285816 22.438408
-28.046906 -1.5097809 22.450886
-27.511761 -2.4263601 22.458599
-26.783875 -3.1139355 22.385475
-25.926891 -3.6242723 22.257511
-25.208111 -4.327034 22.190231
-24.300076 -4.8217878 22.048389
-23.485216 -5.3975668 21.938992
-22.740463 -5.7566185 21.815639
-20.022362 -8.2455015 22.313232
-20.219633 -8.7652273 21.958668
-14.689374 -13.215594 21.652275
-13.604013 -13.922479 21.396915
-12.979139 -14.637562 21.565239
-12.260342 -15.197502 21.329956
-11.700695 -15.494227 21.08765
-29.357437 1.0777111 22.383434
-29.129049 0.27047729 22.447426
-28.756706 -0.32538223 22.447311
-26.237955 -1.3759451 22.473114
-25.736031 -1.9285736 22.435173
-25.177254 -2.2666721 22.35009
-23.981979 -3.3059769 22.217213
-23.455694 -3.8621712 22.175961
-22.913929 -4.3617191 22.12204
-19.782413 -7.6756248 22.261478
-14.055873 -13.053635 21.789768
-13.485662 -13.694078 21.939266
-12.797199 -14.443359 22.057659
-11.86357 -15.001017 21.785759
-11.119188 -15.224176 21.375431
-27.286098 0.46982574 22.449814
-26.826029 -0.10267448 22.425312
-26.482903 -0.88073921 22.458248
-24.718422 -2.5136852 22.278732
-24.165337 -3.0359545 22.222321
-22.362167 -4.4892654 22.007267
-21.77779 -4.9792995 21.943344
-21.063091 -5.3475256 21.82523
-20.303005 -6.0151968 21.743279
-19.394011 -7.0205631 22.534977
-10.213327 -14.949078 21.580856
-9.737009 -15.018992 21.191608
-27.505278 1.4779015 22.354145
-27.342728 1.3010979 22.34502
-25.569809 0.72136879 22.475231
-25.10812 0.2673645 22.430672
-24.609093 -0.65699577 22.448936
-24.114986 -1.5997152 22.468193
-23.211721 -2.0787678 22.324978
-22.436989 -2.7332544 22.237892
-21.777706 -3.4947739 22.192329
-21.010859 -4.1155787 22.1007
-20.120808 -4.5791073 21.957664
-19.229149 -5.0882139 21.821072
-18.73418 -5.6121044 21.779503
-9.231822 -14.559758 21.64851
-25.751297 1.8763237 22.346855
-25.566677 1.5719185 22.347275
-24.341049 0.77261543 22.500854
-23.713806 0.37955666 22.476673
-23.189396 -0.53204346 22.485329
-22.700819 -1.4882145 22.508389
-21.814274 -2.0013428 22.373322
-21.039986 -2.6649256 22.286968
-20.413563 -3.4766541 22.257412
-19.568842 -4.0062637 22.134109
-18.72876 -4.5437889 22.015411
-18.215546 -4.9172812 21.944935
-24.443943 2.0022812 22.412449
-24.195724 1.5910263 22.412308
-21.39167 -0.41512108 22.546528
-20.978775 -0.99845219 22.617977
-20.226088 -1.7221384 22.434254
-19.447838 -2.3448439 22.34177
-18.77393 -3.106411 22.291969
-17.999638 -3.7376528 22.200699
-17.640358 -4.134656 22.172977
-22.791485 2.2644176 22.459106
-22.598476 1.6360683 22.505272
-22.088158 0.69105339 22.522995
-21.456703 0.10374069 22.51231
-20.309919 -0.84733963 22.603909
-19.72003 -1.1726475 22.51004
-18.82682 -1.6567802 22.369568
-18.101137 -2.3580341 22.299534
-17.449337 -3.1078854 22.256195
-6.9558487 -12.605635 21.50523
-6.2123485 -13.035881 21.523323
-5.3834324 -13.529374 21.463009
-4.5809441 -13.913568 21.267612
-22.762859 2.8225651 22.372219
-21.513958 2.3309956 22.420506
-21.343927 1.5302467 22.499794
-20.850033 0.74617767 22.498058
-19.549715 0.65958595 22.685749
-18.782164 0.095720291 22.586864
-18.112003 -0.87052917 22.568424
-17.23469 -1.3862457 22.435242
-16.688581 -2.0081301 22.396355
-4.0303192 -13.776577 21.597073
-3.290184 -13.954102 21.22057
-21.879068 3.3472519 22.359013
-21.558395 2.9944401 22.33754
-20.513298 2.3642063 22.665741
-19.899403 1.6397839 22.623745
-19.266991 0.61358833 22.625957
-18.532158 0.12152481 22.522923
-16.473522 -0.83607864 22.646595
-16.493614 -1.4963779 22.750469
-2.5409679 -13.601414 21.541592
-1.9501581 -13.677032 21.083271
-18.085241 1.8443661 22.638351
-17.569002 1.2635021 22.600044
-16.781776 0.52901459 22.607758
-16.492563 -0.18281364 22.760201
-1.8766661 -13.381344 21.402336
-18.86577 3.8706055 22.525135
-18.440989 3.3628902 22.500095
-18.109552 2.6143379 22.533142
-16.527197 1.9712772 22.713581
-16.443104 1.3366814 22.811508
-20.624434 7.0373001 23.167747
-19.143219 4.8005562 22.457211
-18.319839 4.757616 22.839199
-17.792099 4.3716564 22.728642
-16.997337 3.303421 22.548344
-16.498081 2.5820122 22.749744
-21.915569 9.442421 23.185909
-21.604824 8.7499523 23.047619
-21.106895 7.7715912 23.071705
-20.269424 7.0984993 22.909752
-19.361626 6.7945938 22.807537
-18.702011 6.0218754 22.757511
-18.325718 5.1871243 22.663464
-17.310835 4.345726 22.656902
-16.511129 3.9089966 22.914284
-16.16576 3.4152031 22.741806
-21.998846 9.8209572 23.20475
-21.560654 11.684637 23.543163
3.9491634 -10.759202 21.307491
4.4812737 -11.496796 21.389122
5.1591301 -12.22314 21.316811
5.8843784 -12.715908 21.055325
-21.655819 12.939753 23.449112
-21.552307 12.241957 23.364464
3.3107109 -8.8561335 21.517429
3.491497 -9.6070147 21.538643
3.774229 -10.335036 21.561996
6.5480289 -12.431664 21.416843
7.230402 -12.618012 21.01186
-22.543205 14.918392 23.702682
-21.938225 14.32954 23.61937
-21.682949 13.57785 23.477654
3.1837788 -7.4951048 21.858719
3.2332153 -8.2003984 21.55257
7.244915 -12.117141 21.730122
7.8873959 -12.118464 21.439594
3.2515411 -6.0709114 22.080898
3.263443 -6.6953564 21.825127
8.440443 -11.655989 21.663116
3.3896313 -5.636961 21.887295
3.3759212 -6.0472994 21.764088
10.48325 -9.8076515 21.539265
10.76326 -9.9549875 21.160057
11.899111 -10.953201 21.583706
12.343576 -11.329628 21.180775
11.100252 -10.147488 21.523952
11.795483 -10.781301 21.401402
12.617825 -11.380748 21.303493
13.641661 -11.707836 21.177406
14.369133 -11.938096 20.885677
14.269827 -11.548786 21.614323
14.966913 -11.767115 21.106205
15.629976 -11.89133 20.831646
15.716623 -11.268406 21.516315
15.914614 -11.452583 21.214146
19.033445 -8.6963425 21.182262
19.894829 -9.1349401 21.182545
20.699108 -9.6548338 21.043602
21.458271 -10.244157 20.860531
22.171215 -10.710967 20.857372
21.195621 -9.7073498 21.403694
21.801769 -10.035822 21.308594
22.628273 -10.647574 20.998402
23.44923 -11.032417 20.775066
-20.025434 -13.660048 22.328186
-19.392338 -14.355617 22.281921
-20.102169 -12.393293 22.813763
-19.631065 -13.216784 22.853901
-18.867414 -13.862569 22.785343
-18.030416 -14.232951 22.50919
-20.413887 -11.114406 22.924183
-20.2001 -11.80864 23.053692
-18.173271 -13.64352 23.212963
-17.505102 -13.935292 22.911438
-16.875946 -14.176369 22.532784
-20.384274 -9.8200245 22.974632
-20.372894 -10.417496 23.184467
-15.998882 -13.795233 22.710293
-19.94243 -8.2486591 23.08297
-20.123495 -8.8452864 23.086243
-15.179552 -13.178663 22.868664
-14.846941 -13.145372 22.351593
-19.70981 -7.702486 23.187386
-19.792614 -8.1807661 23.554935
-14.627443 -12.70348 22.921692
-13.835122 -12.714651 22.695015
-13.198221 -13.43226 22.708275
-12.471765 -14.224009 22.663589
-11.64889 -14.572953 22.488373
-11.040277 -14.788485 22.169006
-19.306801 -6.8584003 23.4048
-13.595999 -12.409548 23.186489
-11.087267 -14.407637 22.768452
-10.424266 -14.575274 22.301605
-9.5445461 -14.182952 22.569584
-9.0271511 -14.140041 22.356895
-8.8180943 -13.655936 22.805359
-8.7141886 -13.820576 22.47002
-7.2506843 -11.925234 22.767757
-6.8477063 -12.302646 22.481102
-6.0057898 -12.788356 22.471722
-5.3135233 -13.253916 22.19952
-16.800688 -2.0887537 23.515194
-5.4483457 -12.756716 22.860222
-4.7937431 -13.084169 22.577499
-4.1152592 -13.3752 22.210449
-16.555157 -0.97894573 23.456352
-3.3459501 -13.056749 22.502018
-2.7137156 -13.204904 22.160465
-16.516235 0.459589 23.521275
-16.530842 -0.21429825 23.55788
-2.6634912 -12.634355 22.84034
-2.1468763 -12.830956 22.256462
-16.575264 1.7387066 23.841812
-16.536278 1.1220913 23.474457
-21.626028 7.9215145 24.332157
-21.304192 7.4312496 24.12146
-20.710871 6.6726646 24.049084
-19.995384 6.0996132 24.071121
-19.069832 5.3908215 23.981461
-18.4977 4.6518612 23.813568
-17.646402 4.1212788 23.702854
-16.767614 3.5091877 24.032688
-16.468025 2.6009655 23.66819
-22.130272 9.2760391 24.268532
-21.816547 8.4988346 24.090942
-21.417286 7.8069725 23.807789
-19.536121 6.2753353 23.58448
-19.05648 5.8160076 23.536766
-16.73501 3.7604618 23.588631
-16.288364 3.3087635 23.243919
-22.205872 9.8345337 24.306942
-21.913902 12.146463 24.615192
-21.809872 11.507669 24.393814
5.0217419 -11.571024 22.180416
-22.841835 14.178236 24.540993
-22.544628 13.603613 24.552872
-21.876902 12.827261 24.297916
-21.748131 12.175222 24.097424
3.3500328 -8.8943539 22.454056
3.6574249 -9.500845 22.560604
4.2114773 -10.377415 22.549515
4.8583508 -11.116629 22.517788
5.7156544 -11.675289 22.374474
6.5288239 -11.999779 22.082878
-22.90918 14.778217 24.707836
3.145216 -7.4887381 22.687176
3.2478352 -8.3235855 22.531395
7.2444401 -11.630512 22.474094
7.7743988 -11.816843 22.029205
3.1721535 -6.1031694 22.743378
3.149292 -6.7990866 22.771797
7.9267826 -11.40766 22.59079
8.4299622 -11.363048 22.303974
3.2638397 -5.3834896 22.819878
3.5025787 -4.211462 23.095646
3.3629131 -4.6262922 23.188564
10.329229 -9.5919952 22.260384
3.689333 -3.2522812 23.282871
10.560738 -9.6066065 22.43568
11.126482 -10.089224 22.335835
11.984289 -10.672179 22.254795
12.883018 -11.061638 22.23032
13.549795 -11.364492 21.873009
13.551777 -10.923853 22.548111
14.290047 -11.114079 22.250427
14.945557 -11.31863 21.796951
14.949032 -10.833727 22.587616
15.373442 -10.955446 22.23037
17.873516 -8.3355951 22.460205
18.244322 -8.4342661 22.303665
18.879766 -8.7361393 21.894459
21.079453 -9.3945713 21.858025
-19.295988 -12.89991 23.372486
-18.723221 -13.423376 23.31229
-19.994791 -11.083755 23.835991
-19.712797 -11.903196 23.751354
-19.007938 -12.571669 23.854721
-18.150492 -13.111876 23.731045
-17.376537 -13.401781 23.519569
-20.114077 -9.7354889 23.687527
-19.867559 -10.40074 24.061996
-19.426563 -11.169303 24.387623
-17.646057 -12.731541 24.192871
-16.782028 -13.178787 23.730087
-16.182394 -13.418495 23.345066
-19.826031 -9.0228329 24.011513
-15.909808 -12.770751 24.070648
-15.486521 -12.876209 23.720737
-19.451128 -7.6132002 23.967159
-19.541145 -8.1952744 24.271069
-14.583632 -12.31559 23.807823
-14.056561 -12.278579 23.276344
-12.883628 -13.385565 23.159527
-12.428192 -13.880708 23.123116
-19.136621 -7.0276356 24.219997
-13.932397 -11.896139 23.892262
-13.350029 -12.192435 23.759811
-12.700952 -12.991737 23.723953
-11.818433 -13.531486 23.721859
-10.953571 -13.909939 23.37933
-18.619293 -6.1548672 24.39193
-11.070238 -13.351236 23.983948
-10.423414 -13.584278 23.725945
-9.8005943 -13.803703 23.31139
-18.128601 -5.2274818 24.239605
-9.6058598 -13.154676 24.072277
-9.0480375 -13.284631 23.589512
-17.460756 -3.943634 24.240089
-17.592388 -4.3631887 24.45948
-8.6075106 -12.868538 23.788307
-17.168856 -3.2689905 24.476009
-7.2414742 -11.634905 23.436058
-6.6606221 -12.008615 23.206673
-16.8286 -1.8436089 24.620213
-16.860748 -2.2792521 24.476646
-7.0440874 -11.417295 23.931034
-6.2990499 -11.85623 23.698673
-5.4790215 -12.292649 23.493473
-4.6723375 -12.542145 23.369091
-16.63208 -1.123167 24.524853
-4.0740137 -12.385624 23.60191
-3.4754038 -12.636114 23.17136
-16.616697 0.41749954 24.528728
-16.580143 -0.26563835 24.511612
-3.3845844 -12.147114 23.778503
-2.8205938 -12.229677 23.405392
-16.594299 1.7026291 24.626789
-16.611002 1.0963249 24.56168
-2.1615486 -11.758615 23.430946
-21.892323 7.9617672 25.096352
-21.508831 7.2135715 25.01112
-20.929544 6.3601894 24.984219
-20.231562 5.6260395 24.939316
-19.388004 5.0673237 24.815006
-18.714819 4.3017349 24.767467
-17.871307 3.763916 24.645679
-17.012672 3.3083496 24.682358
-16.526569 2.5929794 24.654186
-22.305237 9.1530228 25.324112
-21.978603 8.3785801 24.863659
-22.051445 10.648258 25.31654
-22.909599 12.827356 25.438915
-22.305433 12.164677 25.374886
-22.106644 11.362654 25.360794
-23.094622 14.013298 25.428616
-22.951788 13.413277 25.344677
-22.31941 12.645552 25.120411
3.9188538 -9.4611282 23.25362
4.5474739 -10.145653 23.427032
5.22645 -10.751312 23.354992
5.9211769 -11.218739 23.083141
-23.067039 14.775486 25.487232
3.2413769 -7.6003704 23.462345
3.5239372 -8.2261763 23.633099
3.9933624 -9.1074238 23.777843
4.6438541 -9.747879 23.901768
5.6268425 -10.493563 23.815639
6.4754372 -10.991464 23.454128
7.1113396 -11.182807 23.144737
3.1729851 -6.1754322 23.620785
3.2566395 -6.9350872 23.770844
7.2216473 -10.810806 23.553654
7.8771687 -10.804632 23.396843
8.5163879 -10.980541 22.898415
3.2835102 -5.4092045 23.791191
8.6856575 -10.389581 23.515705
8.910902 -10.577685 23.121796
3.4515514 -4.1291685 23.901688
3.3311749 -4.711833 23.820328
3.7668076 -2.6398687 23.847111
3.6356525 -3.1705561 23.944145
10.085358 -8.9568148 23.927441
10.636932 -9.2742558 23.434235
11.38979 -9.8691301 23.31559
12.179535 -10.390425 23.184185
12.941299 -10.708558 23.048672
3.8670158 -2.0178108 24.101513
12.766323 -10.426157 23.508316
13.498672 -10.655685 23.207085
14.086823 -10.876228 22.858025
3.9153309 -0.50944424 24.391129
3.9228153 -1.1379251 24.245861
14.838814 -10.637913 23.044743
17.513992 -7.9780951 23.271053
17.638369 -8.0017948 23.437382
18.378538 -8.3027668 23.274803
-19.192747 -11.690765 24.407818
-18.684469 -12.255117 24.369415
-18.245255 -12.609634 24.315472
-19.309984 -10.389478 24.757309
-18.927401 -11.066574 24.916649
-18.213692 -11.742856 24.961739
-17.405319 -12.250809 24.699951
-16.717836 -12.55859 24.422752
-19.476812 -9.1297493 24.748608
-19.190773 -9.7772665 25.062595
-18.600246 -10.712753 25.385201
-17.766478 -11.451406 25.294521
-16.830587 -11.870893 25.036804
-16.089998 -12.331594 24.591156
-19.11096 -8.3182774 25.09343
-19.068003 -9.0007982 25.243572
-15.916384 -11.460195 25.318913
-15.439798 -11.687756 25.018143
-14.909657 -12.057961 24.456837
-18.903168 -7.1366196 24.884003
-18.809256 -7.4835777 25.229557
-14.734371 -11.412254 25.034657
-13.976979 -11.41896 24.668259
-13.065529 -11.912966 24.248844
-12.391248 -12.685468 24.201046
-11.799273 -13.211163 24.138588
-18.370386 -6.3113842 25.154137
-13.401683 -11.053007 25.022568
-12.771199 -11.631101 24.845474
-11.988794 -12.281128 24.787392
-11.108727 -12.692783 24.668064
-10.358265 -13.126295 24.248344
-17.845848 -5.4264021 25.318375
-10.527098 -12.311194 25.019585
-9.7285395 -12.674416 24.615398
-9.0286608 -12.720263 24.357239
-17.43644 -4.5405645 25.304111
-8.80797 -12.050152 24.867466
-8.6343021 -12.492145 24.296097
-17.041132 -3.4066296 25.26709
-17.104881 -3.8351402 25.51524
-16.772436 -2.3835688 25.358631
-7.4209085 -10.712113 25.014854
-6.8817329 -10.978511 24.711689
-6.0513587 -11.461121 24.498856
-5.4215851 -11.89542 24.224903
-16.544317 -1.1643953 25.500076
-16.526173 -1.6798429 25.682728
-6.4783306 -10.71975 25.066418
-5.6460881 -11.270739 24.86919
-4.8149548 -11.75108 24.538868
-4.0786552 -11.857355 24.389511
-16.50737 0.33231163 25.515289
-16.496147 -0.3614254 25.613483
-3.991498 -11.316412 25.054169
-3.3807716 -11.570099 24.486328
-2.8303337 -11.754656 24.066395
-21.074341 5.9043789 26.003059
-20.481918 5.2594013 25.90139
-19.766138 4.5559635 25.843441
-19.085854 3.8025055 25.782856
-18.284891 3.3380909 25.728146
-17.504608 2.7442608 26.143406
-16.474522 1.707962 25.601181
-16.534111 1.0552006 25.596062
-2.8516302 -11.217575 24.57449
-22.392315 8.4263935 26.533264
-22.157099 7.9003029 26.113861
-21.682205 6.9252396 25.946735
-21.226974 6.2836781 25.840031
-17.942249 3.3688812 25.441494
-17.152538 2.940958 25.565201
-16.504398 2.3813763 25.675488
-22.407822 8.8516769 26.130993
-22.215181 8.4560165 25.709675
-22.714193 11.422754 26.517551
-22.30262 10.654366 26.32222
-23.132572 12.73786 26.396637
-22.75391 11.806175 26.250179
-22.312897 11.330523 26.157116
-23.201935 13.946735 26.458134
-23.174728 13.343437 26.257442
-23.143406 14.839994 26.628422
3.8994522 -8.188406 24.561779
4.3464699 -8.9227772 24.591831
5.0023193 -9.6839933 24.470333
5.8391647 -10.176353 24.452431
6.4525776 -10.48324 24.165783
3.2906437 -6.1949606 25.135521
3.5090694 -6.8946753 24.714386
3.8020821 -7.6527653 24.737827
6.4657688 -9.9768305 24.884945
7.0794659 -10.34664 24.348938
7.7214756 -10.388712 24.042397
3.3881912 -5.5291748 24.692879
3.4822598 -6.2754164 24.872787
7.8358612 -9.9453011 24.605602
8.4299278 -10.141232 24.075718
3.4782257 -4.298357 24.911625
3.4571209 -4.709425 24.885056
3.7563 -2.6587715 24.512543
3.619051 -3.2667713 24.715572
10.323462 -8.6561146 24.44598
10.861839 -9.0549793 24.377216
11.503756 -9.5454865 24.232872
3.8405743 -2.0049992 24.745968
11.228525 -8.976881 24.904472
11.935175 -9.4456682 24.617657
12.308493 -9.9513617 24.138271
3.8934422 -0.72406673 24.664593
4.031435 -1.4547901 25.511982
16.989344 -7.2557392 24.541759
17.605125 -7.5647602 24.119347
18.026531 -7.9335089 23.911102
-18.615009 -9.6464834 25.694633
-18.299747 -10.416291 25.733757
-17.524292 -10.951842 25.717674
-16.797333 -11.323749 25.50922
-18.735939 -8.5319099 25.657997
-18.374895 -9.0152798 26.060913
-17.76569 -9.8702888 26.197922
-16.914419 -10.453608 26.10429
-16.123377 -10.962831 25.745693
-15.426262 -11.045576 25.634548
-18.323259 -7.728776 26.021904
-18.001408 -7.9963827 26.399742
-15.423976 -10.409582 26.160427
-14.75152 -10.880607 25.605465
-17.902573 -6.1839943 25.871639
-17.96656 -6.8733997 26.157104
-14.789954 -10.196342 26.199028
-14.114232 -10.364717 25.966881
-13.302942 -10.672303 25.596691
-12.474523 -11.328195 25.362331
-11.724906 -11.91502 25.246525
-17.718115 -5.7808828 25.973892
-17.678421 -6.1192417 26.28508
-13.38493 -9.8491611 26.296108
-12.683155 -10.291468 26.061756
-11.898317 -10.756126 26.014828
-11.178133 -11.388268 25.762615
-10.32725 -11.913851 25.390614
-17.036983 -4.5909214 26.243599
-10.69471 -10.991954 26.088127
-9.7697163 -11.348596 25.770271
-9.2921791 -11.81323 25.329803
-16.756929 -3.3374252 26.20882
-16.835331 -3.9436245 26.338928
-9.0154638 -10.721938 26.097477
-8.453537 -11.070494 25.540997
-16.548639 -2.6283989 26.337059
-16.482754 -3.2190952 26.834091
-7.6339264 -10.426919 25.541328
-16.375031 -1.1639061 26.418629
-16.359053 -1.7363348 26.543839
-7.0882425 -10.025282 25.818516
-6.2235923 -10.344309 25.640808
-5.4335198 -10.848834 25.453339
-4.7471018 -11.172605 25.211948
-19.24719 2.9927044 26.926327
-16.387928 0.310112 26.422783
-16.31901 -0.36355209 26.558701
-6.373302 -9.5724583 26.220963
-5.8409214 -9.9708977 26.153919
-4.8834734 -10.494282 25.855518
-4.227849 -10.971577 25.457542
-3.3850946 -11.152767 25.236874
-21.707367 6.4116497 26.913128
-21.278267 5.7504578 26.832104
-20.675116 4.9394894 26.80883
-20.030479 4.1870327 26.76495
-19.391602 3.4235001 26.627365
-18.470392 2.9124393 26.581566
-17.529709 2.4291248 26.692413
-16.681681 1.9243851 26.933151
-16.312393 1.0772667 26.601776
-4.069294 -10.11717 26.129139
-3.5563688 -10.389246 25.850166
-3.1658268 -10.912731 25.657772
-22.502605 8.3635082 27.16679
-22.283844 7.5849705 27.143559
-21.946121 6.8896313 26.919289
-16.515402 2.1382961 26.406422
-22.599911 9.9150391 27.590137
-22.542717 8.8584003 27.141018
-23.013966 11.284157 27.309208
-22.740793 10.497393 27.365288
-23.234676 12.545025 27.433167
-23.112408 11.894907 27.049854
-23.273586 13.898375 27.552536
-23.241379 14.58441 27.927616
4.6572704 -8.7990961 25.191708
5.2678204 -9.3995285 25.136349
5.734827 -9.7235775 25.070362
3.9226665 -6.8627396 25.589432
4.2390099 -7.6203518 25.549183
4.837429 -8.3621988 25.641163
5.6038857 -9.0315819 25.622364
6.2922459 -9.5742683 25.327156
7.1945038 -9.6704378 25.194328
3.7372036 -5.5434151 25.591469
3.9691982 -6.2491055 25.83218
6.4158974 -8.7988033 26.017632
3.6697445 -4.2979689 25.533623
3.6689396 -4.8542099 25.498585
2.034544 -1.4069433 26.054527
2.3279047 -1.4466391 25.908707
3.8760738 -2.6894569 25.730701
3.7902355 -3.5300503 25.71769
9.2946243 -8.1508627 25.633823
10.208242 -8.2663002 25.039089
2.5643559 -1.4063053 25.848625
4.1359806 -2.0151787 26.147095
9.8790417 -7.8077822 25.825386
10.500271 -8.182497 25.372856
11.161982 -8.6546087 25.237278
12.004866 -9.1214046 25.165558
-17.410408 -9.494585 26.717171
-16.660271 -9.9539928 26.603462
-17.614342 -8.4394636 26.763264
-17.064276 -9.1477547 27.062004
-16.238695 -9.7134762 26.716541
-15.658295 -9.9235945 26.602818
-17.437096 -6.9484844 26.909824
-17.03232 -7.6148281 27.131271
-16.319565 -8.3324213 27.295399
-15.578593 -8.9056368 27.144878
-14.767922 -9.5492144 26.721355
-14.055193 -9.8284168 26.447136
-17.662207 -5.7873917 26.783852
-17.257273 -6.2478218 27.062233
-16.620609 -6.7763796 27.494244
-14.804096 -8.5085926 27.369175
-14.120763 -8.7712631 27.186165
-13.391106 -9.4025631 26.708534
-12.56963 -9.9405327 26.394413
-16.671217 -4.792037 27.106407
-16.546124 -5.445756 27.426434
-13.496633 -8.6227379 27.264858
-12.84491 -8.9623137 27.072353
-12.050888 -9.4798317 26.872269
-11.142418 -9.9615049 26.726326
-10.382349 -10.495238 26.488514
-16.423958 -4.0509186 27.249092
-16.452435 -4.7262096 27.393116
-12.000676 -8.531105 27.404617
-11.495662 -8.8864784 27.33572
-10.520603 -9.2971497 27.16407
-9.8558006 -9.9891195 26.734291
-9.0288439 -10.398632 26.405754
-16.236797 -2.6419363 27.2239
-16.222065 -3.2633934 27.404198
-9.835968 -9.0428715 27.340084
-9.1561441 -9.3601151 27.072803
-8.5730104 -10.15753 26.774643
-8.2236977 -10.485421 26.540668
-20.359604 2.0123348 27.843491
-16.159479 -1.1558504 27.310257
-16.063185 -1.8780537 27.503841
-8.0823898 -8.6007614 27.25528
-7.7250071 -9.0428305 26.839115
-6.8924117 -9.4733276 26.331783
-20.912136 4.3475056 28.007908
-20.383415 3.8169937 27.771706
-17.862417 1.6747341 27.914566
-17.551609 1.3639851 28.124691
-16.195791 0.22294044 27.117661
-16.080799 -0.42022133 27.50156
-7.0032301 -8.5165348 27.120262
-6.3177543 -9.0572443 26.728985
-5.5671911 -9.5881405 26.49575
-4.7366581 -9.9609842 26.266457
-22.306427 6.9574642 28.228653
-22.009008 6.3189697 28.057472
-21.494106 5.4671097 27.794319
-20.923712 4.6910286 27.689968
-20.515972 4.1826248 27.563759
-17.818085 2.0060482 27.440304
-16.934502 1.4576263 27.695717
-16.178944 0.85616302 27.585655
-15.955072 0.18644142 27.91708
-5.8612943 -8.5868034 27.19463
-4.9596395 -9.0955477 26.88689
-4.2207232 -9.5602369 26.603004
-22.677265 8.3121166 28.207932
-22.460594 7.5261612 28.13776
-4.2746229 -8.397212 27.250141
-3.4968805 -9.2419701 26.690186
-3.2237005 -9.4757681 26.309544
-22.898193 9.8240662 28.377823
-22.730223 9.0193729 28.308414
-23.237518 11.803379 28.199272
-23.149006 11.089821 28.222492
-23.027449 10.387949 28.201469
-23.399239 13.224747 28.624805
-23.272976 12.422901 28.218433
-23.301662 13.617601 28.215054
4.7358322 -7.5320015 26.231571
5.1767731 -8.1408958 26.23764
5.7538528 -8.5563841 26.141365
4.4559155 -6.1649284 26.547043
4.8132458 -7.0386353 26.58865
5.4368248 -7.7556658 26.616337
6.1401749 -8.2875938 26.443043
6.494566 -8.9285841 26.018108
1.5507307 -2.3683777 27.001152
1.658042 -2.4270725 26.985317
4.1125164 -5.1105814 26.416897
4.6176167 -5.6281881 26.968033
6.3769588 -7.4397783 27.08313
6.5773106 -7.4885683 27.043423
4.2260513 -3.5635471 26.666035
4.4718895 -4.1012487 27.04533
4.4822636 -2.9610043 27.354973
9.1092281 -6.7593212 26.815083
10.076887 -7.2555122 26.358418
10.520405 -7.7585649 26.3381
10.401703 -6.9678917 26.830914
16.127449 -5.8443832 26.245548
16.473227 -5.0232735 26.999748
17.02499 -5.896944 26.313835
-16.301828 -7.0133495 27.692539
-15.834549 -7.7960453 27.696751
-15.018389 -8.1093264 27.551594
-16.066566 -5.4876909 27.919952
-15.631835 -6.1992397 28.078072
-15.026704 -6.9155254 28.071415
-14.178972 -7.460413 27.951252
-13.422802 -8.0550137 27.670311
-12.694759 -8.3146448 27.53619
-16.005573 -4.1881695 27.907551
-15.772974 -4.7377195 28.146339
-15.166857 -5.4576797 28.436653
-14.317803 -6.1465912 28.454136
-13.531363 -6.7735949 28.361217
-12.834801 -7.3894567 28.023972
-12.072077 -8.0270138 27.709473
-11.111972 -8.4762688 27.559757
-10.503313 -8.8434734 27.469646
-20.778027 1.3797112 28.887623
-20.324976 0.95674133 28.841602
-15.743169 -3.3505077 28.250134
-15.48641 -3.9711628 28.574638
-12.210053 -6.9444208 28.387074
-11.421673 -7.4321165 28.176582
-10.575791 -7.8357592 27.991566
-9.8418474 -8.6838665 27.830894
-9.3854008 -8.9261312 27.889767
-20.519236 1.6646652 28.306484
-20.169928 1.4750938 28.253609
-15.715391 -1.9046049 28.343121
-15.586956 -2.6412678 28.493229
-9.7950058 -7.3313751 28.319096
-9.5664234 -7.7451572 28.103691
-8.5079498 -8.3590031 27.531052
-21.549604 4.9149914 28.835178
-21.154198 4.2463512 28.756252
-20.746605 3.5990181 28.720505
-17.944313 1.3791256 28.325241
-17.437256 1.1070271 28.521473
-15.813304 -0.59233952 28.466789
-15.729256 -1.2453299 28.580162
-8.7009449 -7.3722944 28.187275
-7.7600827 -7.7872562 27.759331
-7.0431657 -8.1590309 27.414982
-22.40498 6.8848438 28.856388
-22.164482 6.1446896 28.991734
-21.750496 5.3455143 28.704544
-16.896566 0.97566414 28.410568
-16.207123 0.72231102 28.370777
-15.847799 0.15958977 28.347683
-7.9159994 -6.8434668 28.361126
-6.9961538 -7.1914663 28.045036
-6.400856 -7.6790104 27.678822
-5.5104799 -8.1035004 27.502712
-4.8579493 -8.4483109 27.399471
-22.731277 8.1530457 28.746052
-22.563522 7.4512768 28.808323
-5.7508492 -6.9816647 28.013554
-4.9447756 -7.5474119 27.756706
-4.6289654 -8.3980579 27.338295
-23.266357 10.351412 29.008404
-23.142864 9.9198475 29.044701
-4.2803087 -7.5073099 27.601665
5.072813 -6.5599899 27.261509
5.0769424 -5.6428537 27.446659
5.4194145 -6.2248783 27.441963
6.3865013 -6.7183456 27.610313
4.7647114 -3.93857 27.810703
5.0623512 -5.0675735 27.525379
6.4503613 -5.4296589 28.095718
7.8153629 -6.9186335 27.144989
4.7454453 -3.0340967 27.680729
9.2177658 -5.1662006 27.993954
9.98139 -5.8156157 27.536301
10.427452 -6.6998167 27.675037
11.252096 -6.7367201 27.15126
10.097624 -5.5927238 27.639053
17.85936 -4.5823879 27.368465
-14.689693 -5.2238445 28.797005
-14.033689 -5.8352547 28.730484
-13.351335 -6.4284811 28.654343
-21.028355 1.2756481 29.496162
-20.396072 0.4420929 29.520554
-19.77084 0.046394348 29.523613
-15.027906 -4.0871334 29.047535
-14.341091 -4.6952438 29.235161
-13.67852 -5.3273182 29.191898
-12.793148 -6.0546684 28.845772
-11.935366 -6.4043159 28.748882
-11.398252 -6.7036581 28.690674
-17.785482 0.13885307 29.67754
-15.500333 -1.9258518 29.212902
-15.132228 -2.6378975 29.373581
-14.516289 -3.384285 29.580021
-13.796969 -3.9673405 29.579018
-13.003461 -4.8470011 29.46315
-12.106482 -5.2901955 29.311359
-11.357967 -5.879961 29.03783
-10.786085 -6.6283216 28.696697
-10.335258 -7.1073561 28.499695
-21.810303 4.8937187 29.467777
-17.649134 0.48592567 29.360966
-17.284348 0.14552689 29.560623
-15.865911 -0.37534332 29.298962
-15.559781 -1.5863514 28.933342
-11.211857 -4.7067366 29.599892
-10.744021 -5.232172 29.34375
-10.048523 -5.989274 28.930126
-9.3442078 -6.5456648 28.686546
-8.5428066 -6.7532806 28.496475
-9.9855909 -4.8208914 29.481209
-9.6055708 -5.1806545 29.332741
-8.6042461 -5.5885105 29.098267
-7.5880108 -6.4618063 28.519131
-7.2933149 -6.5735674 28.467785
-8.1004114 -5.2624931 29.247417
-7.4135518 -5.8626213 28.866741
-6.4325194 -6.0639153 28.666218
-7.6148677 -4.5416317 29.491589
-5.6007757 -4.4601898 29.006977
-5.4451399 -4.5029116 28.971077
0.62146091 -4.4201612 28.486977
8.1870155 -4.9705849 28.277859
12.616968 -3.9119396 28.520515
12.792641 -3.2252884 28.751526
12.892918 -3.5134096 28.645885
13.116665 -2.7046175 28.985817
13.832512 -3.1810026 28.49958
14.451971 -2.2333822 29.092121
14.814859 -2.8816528 28.607552
-15.903414 -2.5366001 30.786615
-14.128139 -3.1106024 30.059063
-13.378797 -3.7305222 29.971634
-12.836024 -4.1099529 29.897152
-13.279514 -3.5752916 30.231421
-12.297897 -4.0544348 29.98534
-11.636347 -4.4341583 29.822788
-10.845024 -4.2957745 29.842705
-10.286606 -4.5335388 29.778214
-9.1985235 -3.7984285 30.106361
-8.5953732 -4.1913424 29.898933
-8.8302422 -3.612793 30.127869
-8.4344521 -3.9479351 30.083214
-17.162277 -1.7264357 31.348124
-13.639367 -3.6257954 30.788422
-21.008175 -1.5826931 33.571392
-18.970888 -2.8391666 33.272141
-14.996003 -4.7757225 33.087265
-14.722305 -4.8399296 33.03186
-18.371954 -4.9518652 34.576996
-0.78083038 -11.023481 33.497627
-0.63471031 -11.009995 33.461975
-11.331093 -7.8759794 34.77063
-2.2452888 -11.783826 35.457359
-2.0671883 -12.044572 35.410599
-8.4238834 -11.98505 36.784904
-1.9905443 -12.892568 36.92923
-8.6116848 -12.269167 37.162338
-7.0960512 -12.851891 37.751663
-6.9176669 -12.991395 37.734463
-2.3367958 -13.062856 37.420895
-7.0420146 -12.998753 38.142441
-6.8543663 -12.915472 38.088478
-4.5512371 -12.59371 38.821648
-3.4134388 -13.265051 38.506592
-3.107749 -13.343624 38.345123
-2.7289991 -13.202923 37.990047
-1.3979502 -13.784655 38.7286
-18.450043 -10.245726 40.446487
-20.837612 -8.9421663 41.276966
-19.173914 -10.105787 40.600357
-17.19173 -10.999804 41.09589
-25.6124 -4.1888876 42.582481
-25.209679 -4.7787323 42.569939
-24.855331 -5.1626472 42.544189
-17.620281 -11.315725 42.21291
-5.708981 -16.291334 41.634544
-5.6208544 -16.402538 41.628448
-5.8383946 -16.060417 41.63176
-22.335972 -8.3249702 43.194538
-21.814255 -9.136013 43.550182
-25.747431 -4.2579775 43.407776
-24.506147 -5.5467319 42.997902
-19.133295 -10.729446 42.485535
-26.572992 -2.495739 43.351807
-24.030544 -6.6683855 44.100052
-18.033157 -11.841575 43.904739
-26.708157 -2.5694771 44.131752
-18.436171 -12.225117 44.925266
-24.963652 -5.9251308 45.067993
-9.4682903 -15.570167 44.555004
-18.638966 -15.23682 45.586578
-21.78727 -10.68693 46.160866
-19.480825 -12.344162 46.015335
-20.082561 -11.586956 45.49942
-19.351858 -12.323365 45.826855
-18.954903 -12.439545 45.75074
-26.371964 -4.2558451 46.311886
-25.864094 -5.1600962 46.321449
-9.1416292 -18.368692 45.629826
-9.6978855 -16.047258 45.422588
-26.403578 -9.5969963 47.565887
-25.912605 -10.120362 47.29335
-25.17137 -11.017132 47.328022
-24.481953 -11.587694 47.404758
-18.772587 -15.691506 47.036179
-18.306986 -15.681659 46.53606
-17.692749 -16.062096 46.837887
-16.454256 -16.514118 46.707355
-22.005875 -11.055505 47.125
-21.624008 -11.368898 47.08511
-19.915077 -12.466602 46.835289
-9.8657923 -16.949286 46.724007
-8.9222507 -18.751072 46.763092
-9.9291611 -16.71343 46.424023
-25.048565 -11.448454 48.387009
-26.382381 -9.8432608 48.207291
-25.95739 -10.350523 48.221081
-25.321669 -11.093576 48.208889
-24.519722 -11.75801 48.309559
-23.957458 -11.985872 48.206341
-19.401466 -15.238646 47.911877
-18.80802 -15.681539 47.989468
-18.433804 -15.850808 47.88023
-17.763914 -16.148645 47.809029
-16.753071 -16.614151 47.869896
-16.022678 -16.912146 47.895237
-21.320482 -11.820961 47.560192
-21.23888 -12.030415 47.801285
-20.290569 -12.875475 47.930531
-15.723259 -16.968578 47.836914
-14.777302 -17.24893 47.459438
-9.17558 -18.972246 47.71891
-31.435986 2.408514 48.770107
-31.307701 2.3258915 48.984547
-28.888741 1.8490753 48.484283
-25.149136 -11.409129 49.350151
-24.713558 -11.797572 49.023827
-27.539227 -8.023283 49.608353
-27.025391 -9.0596294 49.479057
-26.580811 -9.7269287 49.363102
-25.940178 -10.490277 49.280678
-25.268547 -11.198034 49.213524
-24.491455 -11.91595 49.174782
-23.785183 -12.387693 49.02533
-23.139139 -12.648791 48.96064
-20.055861 -14.927774 49.110641
-19.53697 -15.302149 48.794205
-18.812967 -15.753227 48.646927
-18.269026 -16.179598 48.980083
-27.732061 -7.7079115 49.607395
-21.209904 -12.556216 48.611862
-18.387655 -15.938407 48.525002
-17.798008 -16.241747 48.622215
-16.832443 -16.678427 48.585121
-15.97529 -17.060783 48.534142
-15.447206 -17.116133 48.072701
-14.51087 -17.53499 48.408489
-14.061227 -17.723705 48.694946
-27.241699 -4.3579578 49.866081
-27.110769 -5.1858358 49.953281
-8.7943287 -19.277727 48.065147
-8.4179573 -19.400402 48.458691
-25.730091 -10.912462 49.976997
-25.25132 -11.333983 49.921352
-24.86133 -11.690944 49.881485
-23.812231 -12.615174 49.773331
-27.086048 -8.9272079 50.323471
-26.540432 -9.7845554 50.25634
-25.927883 -10.526129 50.219955
-25.251705 -11.263191 50.166153
-24.485321 -11.930543 50.081703
-23.739574 -12.518367 50.039505
-23.100515 -12.943375 50.139389
-20.343147 -14.920658 50.104095
-19.536232 -15.473448 49.891476
-18.755192 -15.915804 49.728634
-18.11125 -16.349186 49.843285
-27.55876 -7.7520847 49.946812
-18.348333 -16.065729 49.762764
-17.752071 -16.378374 49.479462
-16.915956 -16.72953 49.414688
-15.789572 -17.255924 49.508984
-15.291457 -17.58176 49.814793
-27.098408 -5.8719015 50.905006
-15.335622 -17.335001 49.329689
-14.792597 -17.533449 49.230694
-14.174404 -17.766182 49.118935
-30.20915 -1.0276937 50.932137
-30.114853 -1.3092241 50.955647
-24.982145 -11.615396 50.780434
-24.385853 -12.159291 50.999462
-27.403973 -8.3621788 51.066856
-27.052078 -9.0343933 51.215202
-26.52599 -9.7984505 51.113792
-25.858578 -10.531005 51.063629
-25.208195 -11.25201 51.027443
-24.505802 -11.971388 50.945915
-23.671019 -12.612072 50.926064
-22.948502 -13.121333 50.954895
-22.434082 -13.539276 51.301746
-20.996548 -14.718533 51.051762
-20.453369 -15.048882 50.905704
-19.649988 -15.574509 50.776505
-18.749266 -16.075684 50.596371
-18.154591 -16.364534 50.321735
-17.721088 -16.554441 50.290401
-16.944494 -16.993671 50.606506
-16.228727 -17.34716 50.680305
-15.383761 -17.637691 50.224163
-27.204077 -5.9762678 51.320057
-14.732778 -17.815008 50.096252
-14.086577 -17.990211 49.970268
-33.074402 -0.31604767 52.377884
-30.186001 -1.9808111 51.813114
-30.06407 -2.6379862 52.00359
-25.00061 -11.6397 51.79142
-24.831903 -11.808153 51.610657
-23.643703 -12.931198 52.290848
-23.32972 -13.241545 52.265415
-27.386127 -8.3807869 52.329948
-26.989399 -8.993721 52.261848
-26.47131 -9.840374 52.140255
-25.841913 -10.601384 52.104614
-25.182804 -11.328204 52.063732
-24.431425 -12.052538 52.00732
-23.805862 -12.594708 51.914841
-22.996761 -13.183511 51.873131
-19.415888 -15.895161 51.721851
-19.149384 -16.116289 51.687817
-18.077671 -16.782907 51.837379
-17.386507 -17.066605 51.788677
-16.811298 -17.378511 51.702599
-29.679586 -3.5904217 52.729267
-29.390015 -3.7850761 52.691349
-30.129181 -2.4140186 52.561115
-29.876253 -2.9939499 52.707203
-24.197857 -12.3953 52.956253
-23.969975 -12.59958 52.70026
-33.026756 -3.4014912 53.965874
-27.318977 -8.5471668 52.899632
-26.956825 -8.9790802 53.05249
-26.416777 -9.8327408 53.107063
-25.783684 -10.587185 52.983608
-25.086298 -11.383952 52.856392
-24.446774 -12.038345 52.755035
-18.87599 -16.745863 52.791191
-18.523523 -16.757368 52.477497
-33.15065 -3.0677185 53.945652
-27.610304 -7.8379269 53.677853
-16.144848 -17.911366 52.087196
-29.322357 -4.1428108 53.839615
-28.925035 -4.7461414 53.909618
-29.680994 -3.4180088 53.780502
-29.446875 -3.7004309 53.548325
-22.874008 -17.100128 54.020332
-25.189667 -11.686998 54.241283
-24.829357 -12.129995 54.213085
-15.672982 -21.051149 53.569832
-15.617329 -21.147284 53.572857
-13.625094 -22.091562 53.624214
-26.978912 -8.8952103 54.217503
-26.38542 -9.940176 54.076603
-25.739887 -10.825869 54.217178
-25.307499 -11.339952 53.8564
-24.761208 -11.888245 53.705307
-16.871099 -18.593769 53.879566
-15.946857 -18.833279 53.309635
-33.106613 -2.9064693 54.645958
-32.812027 -3.2736998 54.468445
-27.448973 -8.0816107 54.465836
-30.974977 -3.7285728 54.671814
-30.117426 -3.6660805 54.515793
-29.281599 -4.2316532 54.574345
-28.929356 -4.8459244 54.554852
-29.584143 -3.5953894 54.320259
-29.193258 -3.9664001 54.27953
-25.176338 -15.231159 54.864834
-24.83601 -15.569729 54.84724
-23.867897 -16.439808 54.83942
-22.896202 -17.185917 54.720364
-22.58812 -17.411739 54.296043
-16.632301 -20.700205 54.608246
-16.081362 -21.160187 54.425976
-15.75771 -21.140791 53.987026
-14.039544 -22.236885 54.676197
-13.037109 -22.474625 54.480515
-27.486328 -8.4172125 54.905136
-26.49168 -10.109446 55.242432
-23.146673 -17.492857 56.054325
-25.448566 -15.038888 56.330406
-24.632763 -15.924155 55.940804
-24.271973 -16.267336 55.847031
-23.329197 -17.221937 55.918816
-22.701183 -17.682535 55.982712
-16.73843 -20.93853 55.512844
-16.207865 -21.288212 55.51685
-15.472212 -21.675625 55.327103
-29.942465 -8.5628681 56.836346
-26.012365 -11.274982 55.913094
-15.148367 -21.672298 55.059307
-14.247398 -22.150698 55.329582
-13.529069 -22.433983 55.127037
-27.845333 -9.1477137 56.728672
-27.247252 -9.183486 55.905716
-26.453722 -10.464948 55.898079
-11.924837 -22.921721 55.352032
-24.616943 -16.210287 56.696083
-24.162971 -16.644991 56.634388
-23.427658 -17.384975 56.730492
-22.937366 -17.762556 56.523243
-25.935726 -14.344783 57.222843
-25.376766 -15.148722 56.754211
-24.708197 -15.970017 56.899372
-24.264318 -16.482849 56.861668
-23.323017 -17.250423 56.540733
-22.477142 -17.905071 56.682064
-21.650591 -18.299137 56.536381
-20.925959 -18.666027 56.710323
-17.010422 -20.952002 56.299286
-16.256577 -21.379503 56.232788
-15.523392 -21.748217 56.249962
-26.387646 -11.014231 56.653263
-26.044991 -12.222767 57.519539
-14.41585 -22.236446 56.262665
-13.580218 -22.578333 56.252899
-30.940762 -6.0955791 57.783825
-12.12092 -23.087746 56.114277
-11.730548 -23.245846 56.575848
-24.655258 -16.240974 57.675812
-24.108784 -16.755505 57.755772
-23.390884 -17.387453 57.68528
-22.925934 -17.774305 57.72382
-26.283577 -13.820656 58.269054
-25.919212 -14.486169 58.041164
-25.407543 -15.192299 57.89798
-24.845669 -15.922852 57.799816
-24.025978 -16.725266 57.700642
-23.345478 -17.327232 57.615505
-22.551056 -17.931047 57.603493
-21.668467 -18.384722 57.67046
-20.766853 -18.804281 57.572365
-20.163462 -19.119453 57.969528
-35.043701 -4.4718933 58.519211
-32.704727 -6.9280167 58.783684
-29.571827 -9.3390961 58.385208
-29.084805 -10.020521 58.495289
-26.25452 -12.366985 58.046238
-17.926643 -20.58725 57.656918
-17.149292 -21.011444 57.385075
-16.337044 -21.442083 57.100189
-15.421394 -21.90556 57.023468
-14.794419 -22.280996 57.360744
-31.065819 -6.8010073 58.753105
-30.59465 -7.5814018 58.654457
-30.092463 -8.5127907 58.474358
-29.7176 -9.0150261 57.921452
-26.546677 -11.789726 58.413109
-14.946634 -22.057524 56.78027
-14.535235 -22.314537 56.959991
-13.544135 -22.716635 57.068829
-12.718824 -22.982292 56.894314
-31.199818 -6.3238735 58.336491
-12.05585 -23.206398 57.081055
-11.940316 -23.394091 57.518158
-24.731709 -16.229345 58.998306
-24.026287 -16.879885 58.772713
-23.378748 -17.450872 58.652805
-22.782885 -17.960571 58.912945
-26.489979 -13.695675 59.002445
-25.9804 -14.460396 58.953644
-25.336046 -15.316445 58.87553
-24.829964 -15.983348 58.854786
-24.269186 -16.527109 58.688744
-23.196384 -17.508381 58.848183
-22.497278 -18.031193 58.544647
-21.620579 -18.537186 58.577789
-20.881542 -18.9438 58.549126
-20.098316 -19.403669 58.542114
-18.328558 -20.501038 58.228035
-34.149948 -5.6514635 59.480991
-32.849915 -7.4557905 59.765015
-29.920647 -8.986824 59.290203
-29.559645 -9.4378357 59.423122
-28.974882 -10.178149 59.28508
-28.428925 -10.702458 59.410267
-26.712591 -11.85272 58.948841
-26.756361 -13.05407 59.517979
-18.049675 -20.671257 58.46991
-17.073624 -21.244585 58.42054
-16.451328 -21.629211 58.244991
-15.553292 -22.086294 58.256397
-14.744052 -22.49872 58.335823
-35.85376 -2.6318922 59.770321
-35.730629 -3.6035109 60.259792
-30.518131 -7.6293011 59.52552
-30.125959 -8.392107 59.4459
-29.704037 -9.0898771 59.509895
-27.041557 -11.334599 58.957134
-13.895881 -22.821177 57.894371
-12.45257 -23.204985 57.61047
-25.248642 -15.775978 59.561493
-24.750988 -16.273043 59.877796
-24.128422 -16.895618 59.826405
-23.363705 -17.541256 59.710926
-22.689354 -18.076641 59.761173
-34.818623 -6.2206411 60.712894
-33.348438 -7.7709455 60.587963
-26.470491 -13.702737 59.812622
-26.019608 -14.506117 59.879524
-25.442039 -15.336841 59.873486
-24.957489 -15.983775 59.767906
-23.001637 -17.67207 59.304146
-22.449787 -18.137733 59.458141
-21.748878 -18.608242 59.487778
-21.036938 -19.018 59.319962
-20.313951 -19.479851 59.213337
-18.176916 -21.129543 59.799984
-17.608036 -21.458269 59.708015
-16.985905 -21.761555 59.606468
-35.115967 -5.649684 60.703716
-34.171532 -6.2002535 60.26976
-29.892311 -8.9998398 59.950188
-29.468386 -9.5164108 60.248138
-28.934631 -10.273453 60.177086
-28.452526 -10.840937 60.158943
-27.536491 -11.548393 60.151917
-17.369291 -21.310034 59.170933
-16.697529 -21.736616 59.302197
-13.912099 -23.194944 59.485283
-35.817425 -3.6347847 60.289757
-30.667439 -7.9649954 60.554371
-30.033417 -8.491457 60.341724
-29.64328 -9.1172752 60.338097
-13.42277 -23.40377 59.39225
-11.660644 -23.742395 58.633499
-36.765984 -0.63339329 61.203568
-9.3225565 -25.572329 58.740013
-20.677439 -21.643005 60.462162
-25.400734 -15.735649 60.786289
-24.872406 -16.339537 60.880836
-24.270897 -16.999647 60.769344
-23.450642 -17.73168 60.777893
-22.616148 -18.317148 60.650524
-22.093849 -18.699282 60.611382
-36.940346 -4.2895203 61.781437
-35.294922 -6.1871223 61.671799
-34.967514 -6.6232681 61.653481
-33.313042 -8.4133902 61.920967
-32.696903 -8.5960884 61.401001
-27.594791 -12.475084 61.16396
-27.296585 -12.769486 61.132332
-26.715878 -13.654963 60.807323
-26.103741 -14.604269 60.84494
-25.549252 -15.389088 60.703583
-24.999184 -15.994684 60.665302
-21.878639 -18.725117 60.323971
-17.214321 -21.920799 60.568512
-36.670845 -4.2684402 61.714169
-36.186546 -4.355279 61.876961
-29.325102 -9.7040787 61.273037
-28.904024 -10.305582 61.209785
-28.387035 -11.017519 61.232876
-27.886709 -11.659857 60.999176
-27.435972 -12.520613 61.127823
-29.906727 -8.6159687 61.20451
-29.510162 -9.2274981 61.416431
-11.971569 -24.227318 60.334015
-22.674284 -20.988873 61.725998
-21.81419 -21.566921 61.602764
-25.453503 -15.832509 61.756847
-24.933556 -16.35886 61.782711
-24.263357 -17.110434 61.70554
-23.322975 -17.956553 61.586605
-22.727312 -18.453981 61.571045
-35.72789 -5.419632 62.539177
-34.71225 -7.4535637 62.985523
-27.258312 -12.897346 61.627296
-26.857933 -13.649757 61.981514
-25.914358 -14.990716 61.613483
-25.7195 -15.290197 61.610992
-36.040581 -4.9090672 62.541691
-29.196812 -9.7890339 62.196743
-28.937128 -10.269757 62.177853
-28.469883 -10.947886 62.013275
-27.514429 -12.374666 61.609291
-29.784317 -8.8290806 62.18042
-29.414558 -9.3723927 62.333778
-3.0402975 -26.159834 60.766914
-2.8815651 -26.118355 60.731056
-22.880556 -20.844028 62.723114
-22.565317 -21.307041 62.565338
-21.669191 -21.903101 62.66087
-21.228413 -22.167688 62.596157
-20.770041 -22.369635 62.371681
-19.867682 -22.881952 62.374058
-25.688786 -15.684277 62.702694
-24.286396 -17.285818 62.241352
-23.796268 -17.863602 62.356327
-14.596786 -24.069363 62.155277
-29.459183 -9.6157131 63.36084
-14.604638 -23.923298 62.130917
-13.849236 -24.470858 62.422569
-8.4038925 -27.54052 62.245163
-7.4303327 -27.550257 61.685673
-6.9885707 -27.557442 61.717793
-3.3418617 -26.501968 61.739418
-1.0451059 -26.598787 61.60553
0.39686298 -28.366116 61.989029
-0.30808353 -26.801689 61.771561
0.06908989 -26.876131 61.849342
3.1958103 -28.371496 61.900364
4.0478859 -28.365416 61.69257
-23.008242 -20.934799 63.394646
-22.601067 -21.319012 63.4771
-21.700619 -22.012173 63.221714
-21.01524 -22.504936 63.394585
-20.381569 -22.957664 63.752983
-20.003017 -23.050716 63.396381
-33.406624 -9.5910988 64.496712
-26.478941 -15.312691 64.13295
-25.38055 -16.530037 63.606815
-16.912491 -23.522354 63.676422
-13.689215 -26.288105 62.994278
-16.118542 -23.885403 63.537598
-15.413726 -24.19025 63.41795
-14.534471 -24.537704 63.25948
-13.872898 -24.812469 63.140957
-13.365956 -26.250698 63.233501
-12.474972 -26.510754 63.059807
-11.420786 -26.895142 63.126358
-11.055717 -27.03595 63.012009
-10.399312 -27.254608 63.01881
-9.3867321 -27.446308 62.875824
-8.863678 -27.519238 62.762985
-8.1465197 -27.641594 62.896412
-38.27454 0.64418602 65.200714
-6.9065847 -27.742619 62.934784
-2.5446396 -26.943779 62.763153
-1.7641621 -27.060516 62.692192
-0.75499344 -26.973289 62.253101
-0.045087814 -28.14727 62.591648
0.48971272 -28.437729 62.435699
-0.52453041 -26.977859 62.197903
