ply
format ascii 1.0
comment PCL generated
element vertex 1523
property float x
property float y
property float z
element camera 0
property float view_px
property float view_py
property float view_pz
property float x_axisx
property float x_axisy
property float x_axisz
property float y_axisx
property float y_axisy
property float y_axisz
property float z_axisx
property float z_axisy
property float z_axisz
property float focal
property float scalex
property float scaley
property float centerx
property float centery
property int viewportx
property int viewporty
property float k1
property float k2
end_header
-22.191425 -9.567688 6.4234772
-18.718948 -9.5216675 6.1962585
-18.010578 -9.2390137 6.2768097
-17.127907 -8.8062134 6.4112396
-13.889013 -8.803894 6.3444977
-12.986382 -9.0420532 6.3925781
-11.989765 -9.2666016 6.4215698
-10.960571 -9.4515381 6.2774811
-10.068207 -9.5509644 6.1520844
-9.3659058 -9.6449585 6.1095886
-0.92495918 -9.6140137 6.219223
0.020302773 -9.5128174 6.3923798
0.83102226 -9.3610229 6.1578217
-26.954208 -7.96875 6.3787842
-25.970108 -8.1547852 6.2635803
-24.917805 -8.3676147 6.2430573
-24.402405 -8.6090698 6.1420746
-16.734818 -8.3984375 6.2277374
-15.985344 -8.1622925 6.3984985
-14.973433 -8.4699097 6.2713165
-14.38909 -8.6397095 6.3084259
4.3398924 -8.4398193 6.3167419
5.0482178 -8.1954956 6.4279175
6.0219641 -7.848999 6.306076
6.6625776 -7.7158813 6.5670624
-27.835262 -7.2736206 6.3452911
-27.397575 -7.5891724 6.4504089
6.4865942 -7.6424561 5.8620758
7.0775843 -7.4891968 6.3430939
8.0358105 -7.1173706 6.3780518
8.7387199 -6.7713623 6.3415375
-28.566902 -6.5258179 6.812088
-28.386909 -6.5724487 6.2953949
9.1804562 -6.5033569 6.1996155
10.031475 -6.0516968 6.3323212
10.633827 -5.7424927 6.5137634
-29.707104 -5.0564575 6.2400665
-29.282909 -5.4949341 6.1245728
10.443094 -5.6575317 6.032074
11.097229 -5.3521118 6.2724304
11.893103 -4.9147339 6.3939056
14.481494 -4.9425049 6.3020782
14.733321 -4.9274902 6.3870697
-30.790905 -3.9724731 6.1020813
12.254074 -4.5725098 6.0840759
12.544894 -4.5625 6.2320709
14.983564 -4.6624756 6.2120819
-31.8661 -3.0478516 6.2932281
-31.309162 -3.2874756 6.1270905
-32.410404 -2.6274414 6.0270844
17.200977 -1.3228149 6.3913574
17.730165 -0.90533447 6.2663727
18.329994 -0.53808594 6.4170837
18.997862 -0.010437012 6.3695526
19.541294 0.30749512 6.5220795
19.446594 0.40753174 6.1020813
20.07501 0.9041748 6.4437256
20.807978 1.7208862 6.3820648
21.499893 2.4475098 6.6920929
21.87825 2.9974976 6.394928
22.365744 3.5950317 6.2295837
22.75437 3.8049927 6.5420837
24.378695 4.0734863 6.8020782
24.539194 4.0175171 6.812088
23.15266 4.5275269 6.0287628
1.1438007 -10.855438 7.5991364
2.0087166 -10.810303 7.473999
2.8360939 -10.682465 7.5520782
-22.546906 -9.7324829 7.625412
-21.853336 -9.8101196 7.4454041
-20.976025 -10.029114 7.2780151
-19.975029 -10.206726 7.3059998
-19.012943 -10.12915 7.3438721
-18.236378 -9.7719727 7.5758667
-10.780907 -9.6824951 6.9120941
-9.6692142 -9.9956055 7.0705261
-8.9327011 -10.076599 7.3209839
-7.9827309 -10.097229 7.3290558
-6.9757385 -10.181335 7.3283539
-5.9703979 -10.222534 7.315033
-4.9659061 -10.267517 7.3035431
-3.9615021 -10.211304 7.2602997
-3.0000534 -10.125488 7.3535309
-1.9265957 -9.9398804 7.4179688
-0.96934319 -9.8503418 7.4262848
-0.26599598 -9.7469482 7.1711578
2.296093 -10.620483 6.9440918
2.9910336 -10.535889 7.4099731
3.6945953 -10.392517 7.8053894
-25.736477 -8.7467651 7.6156616
-24.715805 -8.7265015 7.5110779
-23.96838 -9.0515747 7.4193115
-23.044876 -9.4230347 7.3926392
-22.275608 -9.6114502 7.2230682
-17.805489 -9.5111694 7.3462982
-17.108467 -9.1113892 7.3278656
-16.318907 -8.7424927 7.8170776
-14.506907 -8.6925049 7.1120758
-13.914755 -8.8193359 7.4455414
-13.018061 -9.0987549 7.4248962
-12.022848 -9.4125977 7.3682709
-11.186502 -9.5645142 6.9407501
-0.24123859 -9.6724854 7.0454254
-26.882881 -8.0476685 7.4125824
-26.018742 -8.5180054 7.2225494
-25.056305 -8.5291748 7.2589417
-16.558239 -8.6002197 7.2998657
-15.922264 -8.2247314 7.2846375
-14.985846 -8.446167 7.3589783
-14.370794 -8.6390991 7.3931885
4.4855938 -8.4974976 6.8570862
5.1481972 -8.3256226 7.3161621
6.0359879 -8.0054932 7.2280579
6.8483829 -7.7739868 7.3980103
-27.952538 -7.0811768 7.2437286
-27.364075 -7.5941162 7.5120697
7.2530518 -7.6055908 7.2794495
8.0244732 -7.2897949 7.4065704
8.9659786 -6.8649292 7.4192505
-28.86853 -6.1368408 7.3849182
-28.405907 -6.6374512 7.1587372
9.3843117 -6.5900269 7.2262421
10.006168 -6.2498169 7.4470825
10.823704 -5.7947388 7.570694
13.224195 -5.9734497 7.6699677
13.726987 -5.8532715 7.6305542
11.226046 -5.524353 7.299118
11.802294 -5.2030029 7.1320801
14.089417 -5.5560913 7.3543549
14.950272 -5.0856323 7.4493256
-31.094906 -3.7525024 7.5687561
-30.294907 -4.4824829 6.8920898
-31.761169 -3.4555664 7.2685852
-31.34119 -3.5667114 7.3863678
17.145794 -1.7025146 7.6620789
17.292894 -1.5588379 7.3957367
18.004494 -1.0187378 7.3224335
18.550594 -0.71246338 7.7220917
18.481445 -0.63745117 7.3070831
19.069906 -0.24719238 7.3786469
19.688574 0.17150879 7.710083
20.06501 0.6864624 7.2995911
20.607273 1.1855469 7.4760742
20.984241 1.701416 7.1682434
21.615595 2.1074829 7.8420868
22.018265 2.7402954 7.3677826
22.583794 3.1674805 7.4920807
22.444393 3.3575439 7.062088
-11.480906 -11.022461 8.782074
-10.917107 -11.248505 8.5950623
-10.062157 -11.45813 8.4727325
-9.0919075 -11.367493 8.8270874
0.20084572 -11.148743 8.4776917
1.0278587 -11.110046 8.2918396
2.0337925 -10.967316 8.2233276
2.8855963 -10.759521 8.4412231
-22.901371 -9.9738159 8.4527435
-21.856339 -9.9202881 8.2411194
-20.974903 -10.062134 8.3465118
-19.966862 -10.223511 8.3622437
-18.961178 -10.21991 8.3427582
-18.025623 -9.9145508 8.4118042
-17.468906 -9.6925049 8.5420837
-8.6476212 -10.32959 8.100647
-7.9764595 -10.323059 8.2828827
-6.9731808 -10.322021 8.2578278
-5.9694061 -10.323242 8.2336731
-4.9650574 -10.381714 8.2248077
-3.9491386 -10.350159 8.2066803
-2.9598141 -10.253174 8.3356018
-2.0291309 -10.166016 8.4057312
-1.2000046 -10.109497 8.2500916
3.2741461 -10.601013 8.2120819
3.9295931 -10.379211 8.5154572
-25.698196 -8.7989502 8.2632599
-24.97588 -8.8445435 8.2697449
-24.029133 -9.1446533 8.3114319
-23.083347 -9.5736084 7.9976501
-17.53624 -9.5858154 8.1020813
-16.939514 -9.2611694 8.2397614
-16.311047 -8.8560181 8.4970703
-14.549908 -8.6900024 8.5145721
-13.977747 -8.9155273 8.4510498
-13.038275 -9.251709 8.1795044
-12.370405 -9.4874878 7.937088
5.0990944 -8.7275391 8.8270874
-26.800686 -8.0547485 8.3852997
-26.219082 -8.4730225 8.2911835
-15.830334 -8.3917236 8.324234
-15.028296 -8.4873047 8.3281708
5.2967339 -8.4848633 8.3556519
6.0359955 -8.19104 8.3173523
6.9268923 -7.8841553 8.3497925
7.5349946 -7.7024536 8.8420868
-29.147404 -6.7249756 8.7995605
-27.969486 -6.9835205 8.3431396
-27.333458 -7.5457764 8.4043274
7.4208193 -7.6462402 8.2208405
8.0400372 -7.4342651 8.3918457
8.9855776 -6.9547119 8.2630615
9.5752945 -6.7224731 8.1120758
11.88118 -6.7389526 8.8285065
-29.61174 -6.4175415 8.7170868
-28.762051 -6.4750366 8.5205688
-28.405155 -6.5924683 8.449585
10.089007 -6.3796997 8.3473816
10.833254 -6.1224365 8.3790588
12.361337 -6.50177 8.4685059
12.98385 -6.2940063 8.4033203
13.90293 -5.8823853 8.3256683
14.408319 -5.5499878 8.2145844
15.012224 -5.2097778 8.3365936
15.704856 -4.7886963 8.5646057
-31.61834 -3.7568359 8.2908325
-31.247314 -3.920105 8.4691467
16.03689 -4.4196167 8.3834991
-31.933617 -3.5153198 8.2777863
-31.332577 -3.6091919 7.9187469
17.358438 -1.8046265 8.4676361
17.565193 -1.7525024 8.7220917
-33.831501 -0.76739502 8.6650696
-33.466908 -0.90246582 8.7020721
17.436014 -1.5824585 8.1220856
17.975763 -1.2858887 8.2351837
18.701794 -0.8425293 8.5032043
-34.026672 -0.41943359 8.2005463
19.13759 -0.36901855 8.2407227
19.701719 0.09753418 8.3483276
20.227995 0.5692749 8.1984406
20.558594 0.87255859 8.2370758
21.068361 1.5142212 8.1920929
21.781414 2.0794678 8.3300781
23.481394 1.9575195 8.7020721
23.609093 2.0841675 8.6587677
22.259594 2.3674927 8.2320709
-21.702576 -10.719147 9.8087311
-11.916618 -11.109375 9.5134735
-10.929379 -11.394775 9.359024
-9.981451 -11.543488 9.345932
-9.0642548 -11.545532 9.4651184
-8.0048237 -10.952515 9.6787415
-1.5472393 -11.13916 9.7154083
-0.87558365 -11.244568 9.5000916
0.019309998 -11.271179 9.3935852
1.0224476 -11.171753 9.3387756
2.028945 -10.959747 9.2496033
2.7910414 -10.775177 9.3088837
-23.577106 -9.8485107 9.440094
-22.918327 -10.279297 9.4223328
-22.07679 -10.539917 9.3960114
-20.978008 -10.212952 9.4405212
-19.961456 -10.236694 9.4265747
-18.96146 -10.256653 9.4078522
-17.940434 -10.032959 9.4347534
-17.330906 -9.78479 9.4868011
-12.636906 -10.652466 9.562088
-7.7653866 -10.514893 9.2180786
-6.9729881 -10.487061 9.3359222
-5.969799 -10.505859 9.3159485
-4.9673901 -10.512329 9.29216
-3.9730129 -10.444275 9.2531586
-2.9925327 -10.393982 9.3472137
-2.1185741 -10.390808 9.323761
3.2672281 -10.614807 9.4764252
4.0326376 -10.333862 9.363678
4.7102938 -9.9611816 9.3700714
-25.660355 -8.7553711 9.2710724
-24.956139 -9.0245361 9.3517151
-24.142723 -9.2727661 9.3766479
-16.867439 -9.4543457 9.2606964
-16.187325 -8.9593506 9.4197693
-14.712198 -8.78125 9.4532928
-14.126675 -9.0290527 9.3361206
5.4172945 -8.760498 9.4440765
5.6061277 -8.7324829 9.5887299
-26.813152 -7.9109497 9.4260254
-26.145939 -8.4475098 9.2733459
-15.729036 -8.4917603 9.2791138
-15.171061 -8.53125 9.259613
5.4805946 -8.602478 9.1620789
6.0761185 -8.3482056 9.2469025
7.0787687 -7.9733887 9.2910309
7.7316308 -7.7752686 9.5884247
-29.481907 -6.7525024 9.1020813
-28.946545 -6.963623 9.3487701
-27.939594 -7.0506592 9.2725525
-27.306686 -7.5047607 9.2920837
8.1753788 -7.5192871 9.3468933
9.0404062 -7.0935669 9.267334
9.9484882 -6.8742676 9.5270996
11.115885 -7.0470581 9.6307831
11.994158 -6.8424072 9.5229797
-29.782692 -6.4182129 9.3713684
-28.560905 -6.6324463 9.0520782
9.8033943 -6.6424561 8.8520813
12.439294 -6.6424561 9.5220795
13.065102 -6.348938 9.4494629
13.871958 -5.9153442 9.3630981
14.374834 -5.6005249 9.2561035
15.028271 -5.2293091 9.3771667
15.697268 -4.7903442 9.2948608
-31.571404 -3.9237061 9.3783417
-31.195438 -4.1153564 9.3803101
16.167707 -4.4099121 9.3072205
16.612751 -3.9424438 9.566391
-31.954174 -3.237915 9.43573
16.811295 -3.6474609 9.6920776
-32.656406 -2.0625 9.7020721
17.73806 -1.8157959 9.5204163
-33.803345 -0.95898438 9.263855
-33.341782 -1.1424561 9.3370819
18.218159 -1.3838501 9.260788
18.762611 -1.0319214 9.5256195
19.388361 -0.49584961 9.5643005
19.86158 -0.10693359 9.5540771
20.307028 0.43969727 9.1687622
20.981144 0.96112061 9.342804
22.217894 0.98468018 9.7049408
22.767538 1.163147 9.6376343
21.290344 1.4450073 8.9095764
23.21994 1.5910034 9.2514801
23.838259 2.0269775 9.5344391
24.332294 2.520874 9.4521027
24.818985 2.9992065 9.6420746
25.278927 3.7241821 9.4154205
27.242594 8.9024658 9.4820709
-21.777054 -10.75293 10.257797
-21.290337 -10.785339 10.356339
-17.981621 -10.722504 10.779236
-12.84428 -10.883484 10.402069
-11.978266 -11.174042 10.368942
-10.970497 -11.410553 10.42717
-9.9682693 -11.554932 10.432465
-8.9731255 -11.56015 10.422974
-8.0270634 -11.308594 10.430023
-7.181406 -10.746613 10.481277
-5.6464767 -10.689636 10.45636
-5.4399052 -10.682465 10.452087
-2.7929077 -10.776489 10.412064
-1.8774567 -11.158051 10.368973
-0.97066879 -11.307495 10.329941
0.03079319 -11.245667 10.286072
1.0713062 -11.101288 10.280365
2.0156727 -10.884369 10.351013
2.7147417 -10.753662 10.065582
-23.652409 -9.8635254 10.276062
-22.968773 -10.277649 10.384506
-22.236748 -10.564819 10.496719
-20.781845 -10.375916 10.259506
-19.961269 -10.34259 10.321671
-18.969608 -10.369568 10.310379
-18.028381 -10.350891 10.323471
-17.195469 -9.9033813 10.359894
-13.661621 -10.445312 10.586349
-13.186907 -10.635803 10.200989
-6.8760166 -10.606201 10.189117
-6.0410309 -10.573364 10.201096
-4.9686623 -10.58252 10.207794
-3.9780045 -10.564331 10.182556
-3.0584984 -10.527649 10.068741
-2.460907 -10.582458 9.9520721
3.1086683 -10.552185 10.468445
4.0440159 -10.25531 10.319199
4.8508205 -9.8778687 10.410278
-25.570805 -8.7524414 10.403076
-24.965237 -9.0726318 10.264572
-24.163033 -9.3981934 10.334702
-16.72213 -9.520874 10.149292
-16.041265 -9.0603027 10.389709
-14.965942 -8.8794556 10.405151
-14.436905 -9.2624512 10.24707
5.3325949 -9.5155029 10.577087
5.8848782 -8.8424683 10.529007
-26.827446 -7.9203491 10.397934
-26.059532 -8.4041748 10.325073
-15.644405 -8.6599731 10.099579
-15.309404 -8.6340942 10.085419
6.2539892 -8.4921265 10.24762
6.9908581 -8.1824341 10.302505
7.8921671 -7.8318481 10.439941
-29.566505 -6.72052 10.042099
-29.005611 -7.1220093 10.320633
-27.98811 -7.336853 10.258759
-27.321907 -7.5415039 10.296066
8.3421497 -7.6002197 10.309296
9.0121155 -7.3598022 10.27832
10.046339 -7.3682251 10.424911
11.053864 -7.1818237 10.357742
11.939506 -6.8654175 10.372971
-29.847717 -6.2901611 10.446381
12.416883 -6.6115112 10.424072
12.96563 -6.3513184 10.294769
13.85855 -5.8632812 10.232086
-30.415905 -5.3624878 10.64209
14.302718 -5.5587158 10.466843
14.967941 -5.196228 10.341843
15.608419 -4.8041992 10.308762
-31.576241 -3.7442017 10.085419
-31.198223 -4.1851807 10.277084
16.111967 -4.3886719 10.391037
16.708817 -3.9602661 10.479858
-31.981285 -3.2078247 10.469772
17.080814 -3.4224854 10.778076
-33.060902 -1.7374878 10.377075
17.519995 -2.1824951 10.092087
17.873562 -1.9624634 10.40538
-33.74432 -1.3901978 10.144363
-33.348782 -1.5125122 10.283325
18.291454 -1.5202637 10.223755
19.026846 -0.99932861 10.340103
19.444044 -0.59997559 10.254578
19.988342 -0.17315674 10.322372
20.951584 0.073059082 10.706146
21.727551 0.28460693 10.692078
20.468195 0.34088135 9.9420929
20.975552 0.44836426 10.187088
22.132957 0.53234863 10.395065
22.851414 1.0244751 10.413757
23.347305 1.4307861 10.278214
23.915077 1.9794922 10.335281
24.39238 2.4751587 10.238205
24.83861 2.9697266 10.348206
25.32856 3.5666504 10.437943
25.667595 3.9250488 10.662079
27.061096 8.2575073 10.648758
27.266094 8.4308472 10.778763
-21.682045 -10.744598 11.082092
-21.002209 -10.815094 11.357986
-20.410908 -10.757507 11.717072
-18.584129 -10.811371 11.513184
-17.958202 -10.80426 11.473541
-17.380905 -10.699127 11.625397
-12.885683 -10.820587 11.465836
-11.997393 -11.093262 11.437943
-10.969135 -11.290924 11.438492
-9.9672642 -11.414825 11.460037
-8.9696751 -11.470123 11.441818
-7.950613 -11.391571 11.409119
-6.9765549 -10.978027 11.409653
-5.9837017 -10.769623 11.328217
-4.9834061 -10.764954 11.301666
-3.9769058 -10.817139 11.285522
-2.9730816 -11.109894 11.34787
-1.9718571 -11.27121 11.370499
-0.97181892 -11.246063 11.337677
0.030744553 -11.10791 11.27124
1.0348864 -10.947601 11.271561
1.8764162 -10.745392 11.349762
2.5850945 -10.692474 11.122086
-23.622238 -9.7557983 11.418076
-23.025517 -10.063232 11.485489
-22.028755 -10.529724 11.483887
-21.059704 -10.646484 11.546082
-19.954384 -10.475952 11.415237
-19.090694 -10.541443 11.416183
-16.917519 -10.089355 11.342072
-14.614906 -10.048462 11.64209
-13.953756 -10.368591 11.422653
-13.32449 -10.634094 11.636261
-5.7999058 -10.642456 10.922073
-4.7759056 -10.672485 10.902084
2.2244854 -10.593384 11.590317
3.0358038 -10.432983 11.351578
4.0446224 -10.134033 11.23082
4.7945518 -9.7991333 11.337494
-25.498905 -8.7525024 11.532074
-24.974602 -9.0144043 11.274704
-24.117424 -9.4594727 11.404129
-16.535656 -9.6124878 10.982086
-15.945457 -9.1934204 11.372452
-15.267904 -8.8905029 11.167419
5.2776947 -9.5818481 11.4077
5.9463472 -9.0853271 11.364563
-27.85281 -7.8057861 11.527771
-26.852638 -7.8890991 11.382599
-26.045567 -8.390625 11.397308
6.4131937 -8.6400146 11.06958
7.0751696 -8.336731 11.258499
8.0046291 -8.0220337 11.422089
9.0379696 -7.8030396 11.396362
9.6757317 -7.7437744 11.462067
-28.885731 -7.1541748 11.298141
-27.994991 -7.5558472 11.14296
-27.318043 -7.5638428 11.163437
9.1047611 -7.6358032 11.082077
10.147635 -7.5387573 11.276428
10.993903 -7.2113037 11.388855
11.80212 -6.8235474 11.432602
-29.763103 -6.2017212 11.283234
-29.375191 -6.62677 11.427795
12.312764 -6.5742798 11.490356
13.026177 -6.1937866 11.385574
13.746986 -5.8062134 11.238754
-30.633739 -4.9633179 11.46376
-30.292507 -5.3944702 11.550064
14.267201 -5.4986572 11.469528
15.033674 -5.0159302 11.333923
15.631383 -4.7125244 10.960083
-31.022133 -4.5063477 11.418243
16.080944 -4.3048706 11.371857
16.705759 -3.8604736 11.282593
-32.102737 -3.1291504 11.220413
17.173433 -3.4064331 11.429321
17.584444 -2.9324951 11.762085
-33.523106 -1.7344971 11.084091
-33.097645 -1.9932251 11.37912
18.291794 -1.9624634 11.472672
18.596344 -1.7474976 11.522079
-33.597656 -1.6549683 11.302078
-33.340904 -1.6724854 10.852081
18.472294 -1.6124878 10.967072
19.022953 -1.298584 11.27121
19.91416 -0.80584717 11.47374
20.587395 -0.69750977 11.807083
20.152943 -0.40246582 11.051636
21.080648 -0.26464844 11.406281
21.823627 0.17919922 11.26152
22.269995 0.48461914 11.408264
22.814556 0.95605469 11.424454
-35.234409 1.8675537 11.652084
23.337536 1.4857788 11.403839
23.836548 1.9174805 11.292404
24.34227 2.4575195 11.340424
24.870445 3.0220947 11.262894
25.330263 3.5667114 11.398987
25.717457 4.0220947 11.448456
26.048096 4.5308228 11.695419
28.540094 10.307556 11.342087
29.226595 10.637512 11.472076
29.570095 10.617554 11.712082
33.214096 20.247559 11.217072
34.035393 20.074463 11.645081
33.414597 20.357544 11.177078
-21.514904 -10.712463 12.022079
-20.861885 -10.765564 12.310455
-20.268238 -10.748657 12.487274
-18.870972 -10.783844 12.405258
-17.961536 -10.806854 12.337769
-17.356903 -10.722504 12.297089
-12.747602 -10.750183 12.276672
-11.950554 -10.941345 12.232117
-10.968534 -11.115753 12.253647
-9.9654541 -11.25238 12.268509
-8.966362 -11.320648 12.263809
-7.9775524 -11.317902 12.244476
-6.9647541 -11.133514 12.353088
-5.9693432 -10.949615 12.26207
-4.9820366 -10.960419 12.246307
-3.9795532 -11.081726 12.255829
-2.9780102 -11.208038 12.268967
-1.9554272 -11.189087 12.270203
-0.96974754 -11.06781 12.393143
0.027328491 -10.934326 12.336609
0.89724541 -10.806946 12.219055
-23.555046 -9.7139282 12.257812
-22.904148 -10.027039 12.304092
-21.973 -10.415833 12.33519
-21.252769 -10.613831 12.590103
-19.806881 -10.567627 12.253677
-19.271442 -10.606323 12.135178
-16.949886 -10.442932 12.292938
-16.388739 -9.7557983 12.172089
-14.869812 -9.9055176 12.35997
-13.983511 -10.344543 12.288651
-13.09156 -10.61792 12.406311
1.3310947 -10.620972 12.509796
2.0155935 -10.524353 12.368881
3.0812616 -10.229797 12.357956
4.0473413 -9.932373 12.346954
4.6279831 -9.7813721 12.192093
-25.56641 -8.7545166 12.324097
-24.997498 -9.1060181 12.246445
-24.049133 -9.5205688 12.313385
-15.928511 -9.4624634 12.416565
-15.323351 -9.5669556 12.452103
5.1476612 -9.5078735 12.473404
6.035841 -9.1138306 12.439728
6.6880379 -8.7799683 12.426468
-27.807114 -7.8375244 12.257477
-26.98505 -7.9619141 12.334335
-26.036366 -8.4382935 12.353516
7.1211748 -8.5206909 12.257233
8.0768709 -8.2127686 12.394226
9.0383453 -7.9118652 12.354187
9.6844501 -7.7180786 12.085419
-28.773838 -7.0310669 12.328384
-28.248108 -7.4770508 12.54007
10.081873 -7.5338745 12.271164
11.0578 -7.0846558 12.390793
11.740252 -6.7877197 12.224731
-29.708855 -5.9229736 12.33316
-29.268478 -6.3904419 12.569427
12.171726 -6.5463257 12.353088
13.06625 -6.0578613 12.404068
13.684207 -5.734375 12.275208
-31.525906 -4.725769 12.778763
-30.908619 -4.9039917 12.377838
-30.17334 -5.3589478 12.313385
14.182436 -5.4104614 12.400665
14.970544 -4.9535522 12.404236
-31.693905 -4.4824829 12.712082
-30.903908 -4.6425171 12.052078
15.469181 -4.6224365 12.303329
15.986603 -4.3103638 12.26329
16.694481 -3.7949829 12.348953
17.179605 -3.3978271 12.293243
17.741211 -2.9249878 12.453751
-33.509907 -1.7924805 11.952087
-33.110966 -2.095459 12.412704
18.264847 -2.3842163 12.546783
18.776751 -1.8605957 12.410187
-33.661655 -1.5200195 12.159576
19.282228 -1.4765015 12.294586
19.993874 -1.0999756 12.338654
20.612728 -0.78417969 12.438751
21.148575 -0.35736084 12.290756
21.782753 0.10540771 12.307037
-35.047909 1.2442017 12.622086
22.27565 0.50689697 12.37648
22.867949 1.0551147 12.34552
-35.165657 1.5375366 12.169571
23.341068 1.5366821 12.507919
23.81912 2.0278931 12.460175
24.315485 2.5545044 12.300598
24.761208 3.0184937 12.332077
25.261354 3.6422119 12.32991
25.660427 4.1242065 12.293747
26.015594 4.6298218 12.301514
28.403095 9.1141968 12.778732
28.541094 9.2575684 12.732086
28.954407 9.6737671 12.473343
29.934425 10.982483 12.347092
30.274094 11.527527 12.472076
32.887596 19.127502 12.25708
34.256477 20.031372 12.038986
34.539093 20.017517 11.952072
-20.679905 -10.69751 13.242081
-20.126907 -10.699646 13.22493
-18.869801 -10.729767 13.415741
-18.012985 -10.728851 13.38913
-11.750238 -10.749695 13.133194
-10.958126 -10.85379 13.371872
-9.9765682 -10.982819 13.403793
-8.9748726 -11.082031 13.408447
-7.976038 -11.094482 13.386398
-6.9766083 -11.093842 13.361755
-5.9787426 -11.039886 13.320435
-4.9787979 -11.044128 13.296127
-3.9778385 -11.072693 13.280228
-2.9767475 -11.098083 13.262436
-1.9913177 -11.030487 13.228973
-0.94098282 -10.867828 13.431717
-0.030186653 -10.763824 13.376678
0.59109402 -10.689117 13.272079
-24.759193 -9.7967529 13.604904
-23.960346 -9.8912354 13.4617
-22.975304 -9.8833618 13.408157
-21.980854 -10.20636 13.474533
-21.031975 -10.535889 13.455292
-19.935753 -10.624023 13.42543
-19.193981 -10.611755 13.492081
-17.808559 -10.627136 13.689133
-16.969921 -10.446411 13.42041
-16.312622 -9.914856 13.279724
-14.747622 -9.8193359 13.238144
-13.970711 -10.130066 13.249542
-12.961338 -10.411621 13.302246
-12.064569 -10.581726 13.450241
-11.396572 -10.665833 13.668747
0.33459568 -10.631531 13.707092
1.0628891 -10.541687 13.352859
2.0221472 -10.340698 13.26123
3.0066118 -10.100586 13.284943
3.893959 -9.8219604 13.379807
-25.732243 -8.7858887 13.335419
-25.095337 -9.4803467 13.381378
-23.803406 -9.6624756 13.00708
-15.778364 -9.4789429 13.440994
-15.21702 -9.5455322 13.510513
4.3908272 -9.6204834 13.418747
5.0122061 -9.4603271 13.31279
6.0632229 -9.0630493 13.337982
6.8718872 -8.8259888 13.455643
-27.652992 -7.8267212 13.223511
-26.967968 -8.0664673 13.311752
-26.166218 -8.4168701 13.375214
7.3231411 -8.5891724 13.135422
7.9931331 -8.3166504 13.33606
9.0390263 -7.9143677 13.444855
9.613719 -7.6950073 13.182083
-28.640842 -6.892395 13.260849
-28.154999 -7.3121948 13.417084
10.069462 -7.4737549 13.30069
10.994761 -7.0534668 13.275833
11.656124 -6.7384644 13.219086
-29.62278 -5.7991943 13.385391
-29.097233 -6.3743896 13.385071
12.138064 -6.4852295 13.352081
12.987617 -6.0386963 13.288712
13.568794 -5.7124634 12.992081
-31.545654 -4.7299805 13.354584
-30.935837 -5.1880493 13.309372
-30.130066 -5.4785767 13.382935
13.512194 -5.6724854 13.482086
14.011173 -5.4403687 13.410248
14.915983 -4.8951416 13.365128
-31.712509 -4.451416 13.533081
15.375469 -4.6015015 13.476074
16.010975 -4.2059937 13.340576
16.656248 -3.7687988 13.325699
-32.505909 -2.8624878 13.792068
17.169922 -3.420105 13.265259
17.826839 -2.9331055 13.392426
-32.942596 -2.2798462 13.286682
18.352671 -2.5517578 13.3367
19.08876 -1.9503784 13.283096
-33.578133 -1.2780762 13.403183
-33.441906 -1.4074707 13.322083
19.452494 -1.6491089 13.4254
20.088646 -1.1832275 13.467331
20.633934 -0.77246094 13.293076
21.10726 -0.37145996 13.315491
21.751005 0.15063477 13.386307
-34.908909 1.0015869 13.238556
22.23749 0.60864258 13.325912
22.746037 1.0791626 13.330429
23.240543 1.5817261 13.329208
23.756155 2.1221313 13.363617
24.237957 2.631958 13.405426
24.680248 3.098999 13.285156
25.238201 3.8127441 13.324066
25.616238 4.2175293 13.279221
26.04517 4.8179321 13.426315
26.399094 5.4450684 13.492096
26.563095 5.5875244 13.492081
28.351593 8.7375488 13.202072
28.740093 9.0941772 13.628754
29.085426 9.6075439 13.337082
29.607594 10.317505 13.047089
29.933262 10.999207 13.407089
30.196594 11.44751 12.887085
30.745594 12.577515 13.192078
30.934093 13.567505 13.672073
31.888096 17.277527 13.578751
32.121094 17.733826 13.238449
33.453094 17.657532 13.832077
-18.708279 -10.701263 13.912079
-18.169907 -10.722504 13.858749
-10.681128 -10.743622 14.057617
-9.8924313 -10.78717 14.310806
-8.9747143 -10.85611 14.431229
-7.9721584 -10.945892 14.43364
-6.97826 -11.031281 14.433517
-5.96661 -11.117157 14.414429
-4.9783077 -11.08078 14.398438
-3.978653 -11.007477 14.350693
-2.9772968 -10.957092 14.310135
-1.9753399 -10.875153 14.259888
-1.0371933 -10.773865 14.302536
-0.37647724 -10.703949 14.280655
-24.699596 -9.8131104 14.302719
-23.965271 -10.096985 14.384186
-22.977951 -10.007263 14.352112
-21.978172 -10.135986 14.350723
-20.952641 -10.408203 14.256531
-19.974892 -10.557373 14.238647
-19.01115 -10.583801 14.333893
-17.972366 -10.549133 14.373154
-16.942856 -10.281067 14.410767
-16.278133 -9.9059448 14.331314
-14.666157 -9.7674561 13.865829
-13.924545 -9.9030151 14.248047
-12.967468 -10.173828 14.326843
-11.977451 -10.411438 14.374207
-11.01787 -10.567932 14.464828
-10.122726 -10.642517 14.686768
-0.81628227 -10.654419 14.742691
0.087772369 -10.551758 14.493774
1.0416889 -10.38855 14.389618
2.0260773 -10.197998 14.307037
2.9747009 -9.972168 14.255554
3.7999506 -9.7681885 14.272583
7.3967953 -9.6925049 14.837097
-25.690273 -9.0233765 14.374359
-25.177979 -9.4700928 14.451752
-15.759619 -9.4525757 14.425339
-14.976107 -9.4758911 14.513504
-14.355907 -9.6644897 14.440063
4.2624474 -9.6084595 14.291504
5.0444155 -9.4377441 14.349869
6.0159616 -9.1535645 14.070755
6.865654 -9.2644653 14.266068
7.6388345 -9.5545044 14.790085
-27.533905 -7.7025146 14.327087
-26.952614 -8.006958 14.362869
-26.241703 -8.4291382 14.462921
8.2093573 -8.3091431 14.249863
9.0227594 -7.9011841 14.440201
9.5717945 -7.7225342 14.192078
-28.501572 -6.7492065 14.428741
-27.952423 -7.2605591 14.253342
-27.412903 -7.6624756 14.608749
9.5208941 -7.6424561 14.542084
10.093015 -7.40802 14.395187
11.031019 -6.9676514 14.288849
11.602244 -6.7108765 14.268753
-29.935574 -5.7666016 14.414169
-28.993061 -6.3049316 14.324905
12.105488 -6.4319458 14.301453
13.072315 -5.9389038 14.303329
-30.970188 -5.1578369 14.320297
-30.051327 -5.6082764 14.182053
13.515594 -5.6724854 13.852081
14.048558 -5.3822021 14.351532
14.869362 -4.8987427 14.353043
-31.78413 -4.1102295 14.397064
-31.386574 -4.6091309 14.662079
15.322061 -4.6081543 14.405212
16.069452 -4.1674805 14.456177
16.695847 -3.7971802 14.459122
-32.495907 -2.9524536 14.552078
-32.178055 -3.4024658 14.485153
17.191133 -3.4555054 14.267105
17.840868 -3.0861816 14.293655
-32.890572 -2.2014771 14.222076
19.410494 -1.7525024 14.035431
-33.501904 -1.2174683 14.057083
-33.318905 -1.5025024 14.142075
19.529493 -1.6724854 14.002075
20.050179 -1.2041016 14.270294
20.58737 -0.72998047 14.287079
-34.255306 0.16748047 14.432083
21.085442 -0.30810547 14.329956
21.641506 0.1496582 14.40097
-34.778748 0.62438965 14.372101
-34.432243 0.4508667 14.415421
22.187346 0.67718506 14.310699
22.70686 1.1416016 14.349152
23.22739 1.692688 14.47319
23.683233 2.1635132 14.256775
24.208246 2.7105103 14.446899
24.643471 3.1812744 14.28833
25.128141 3.7631836 14.255798
25.617594 4.2775269 13.907074
25.924259 4.8320923 14.323334
26.416195 5.5264893 14.434082
26.691719 5.9512329 14.430832
26.991808 6.4703979 14.663498
28.497093 8.6074829 14.442078
28.715237 9.034668 14.417786
29.287094 10.102539 14.557083
29.490093 10.467529 14.242081
29.722595 11.01593 14.488754
30.169094 11.972534 14.327087
30.330093 12.417542 14.332077
30.698093 13.217468 14.462082
30.822094 13.412476 14.397079
32.074924 16.665833 14.41597
32.937981 16.9375 14.444305
33.636093 17.277527 14.612091
33.191666 17.391846 14.000656
33.689095 17.83252 14.077087
-6.7815742 -11.770782 15.818741
-5.963356 -11.859589 15.82457
-5.250906 -11.747467 15.772064
-19.783405 -10.704987 15.57959
-19.012905 -10.75647 15.822083
-9.6309052 -10.682465 15.062088
-8.899435 -10.756012 15.27446
-8.0197201 -10.92688 15.301788
-7.1059532 -11.269287 15.314346
-6.1675739 -11.2258 14.852081
-4.9110203 -11.191742 15.247971
-3.9802303 -10.964722 15.257324
-2.9575558 -10.852234 15.382492
-2.0184345 -10.766632 15.341034
-1.3216572 -10.700806 15.174591
-24.62553 -9.7612915 14.912079
-23.94817 -10.023804 15.290344
-22.967648 -10.221313 15.32518
-21.983738 -10.099609 15.278656
-20.978291 -10.327881 15.306305
-20.037045 -10.548645 15.235275
-18.910496 -10.548462 15.238129
-17.97567 -10.439453 15.266342
-17.007488 -10.157043 15.297302
-16.241585 -9.8040161 15.368073
-13.690695 -9.7598877 15.180008
-12.984221 -9.942627 15.385727
-11.997335 -10.18689 15.426422
-10.976507 -10.4375 15.275848
-9.9876842 -10.591675 15.31073
-9.3260708 -10.647461 15.547089
-1.5307045 -10.666504 15.480087
-0.89940643 -10.605652 15.519241
0.030618668 -10.481445 15.447571
1.0391741 -10.291443 15.363373
2.0597115 -10.089417 15.423431
3.0130558 -9.8743896 15.369781
3.8807964 -9.7348022 15.383469
5.1434278 -10.353333 15.822906
6.0841761 -10.279114 15.544876
7.0168953 -9.9937744 15.332458
7.6834941 -9.8139648 15.546371
-25.683182 -8.8314209 15.248749
-25.02483 -9.3594971 15.361053
-24.433903 -9.6524658 15.627075
-15.796841 -9.4674683 15.40976
-14.974213 -9.2802124 15.446167
-14.127277 -9.5639648 15.384979
4.25455 -9.5957031 15.110245
4.8137598 -9.5897217 15.121399
7.8809686 -9.5575562 15.306259
-26.844868 -7.9033203 15.372086
-26.114017 -8.4269409 15.477997
9.1141796 -7.911438 15.290039
9.5936279 -7.7191162 15.082077
-27.944473 -7.0725098 15.297287
-27.308437 -7.5372314 15.477386
9.4965944 -7.6624756 15.777069
10.018871 -7.4588013 15.416458
11.038256 -6.9332275 15.473038
11.557994 -6.7025146 15.622086
-29.850937 -5.8934937 15.255264
-28.984615 -6.210083 15.26326
-28.434578 -6.6257935 15.43541
12.057192 -6.4634399 15.305984
13.030764 -5.9329224 15.361038
-30.746063 -5.1276245 15.252884
-30.304241 -5.5472412 15.409424
13.504627 -5.6124878 15.282089
14.048433 -5.3668823 15.291565
14.934003 -4.8547363 15.36113
-31.612751 -3.9924316 15.231308
-31.282974 -4.3984985 15.358765
15.392227 -4.6151733 15.388733
15.991911 -4.2863159 15.343399
16.825228 -3.9780884 15.313751
18.121758 -4.2373047 15.486069
18.777088 -3.9138794 15.428055
-32.601658 -2.7475586 15.644577
-32.124901 -3.1365356 15.460068
17.271833 -3.628479 15.048096
19.21986 -3.4525146 15.715408
-32.634636 -2.5333862 15.159348
20.328068 -0.9541626 15.267349
20.598564 -0.75537109 15.296387
-34.515408 0.24749756 15.572083
-34.363075 0.29919434 15.302078
21.116463 -0.26171875 15.426819
21.66333 0.20965576 15.327057
-34.719658 0.47753906 15.258759
-34.369904 0.3425293 15.542084
22.136171 0.68041992 15.2211
22.672527 1.2062378 15.296082
23.148819 1.6905518 15.337082
23.658125 2.2005005 15.378052
24.112999 2.7253418 15.388824
24.598045 3.2374878 15.280411
25.033218 3.7894897 15.368179
25.475145 4.3525391 15.277069
25.877031 4.8146973 15.289276
26.378094 5.520813 15.295395
26.682293 5.9094238 15.222076
28.729593 9.1774902 15.047089
28.977276 9.6875 15.209351
29.365761 10.547485 15.415421
29.669666 11.103271 15.279221
30.020094 11.752563 15.302078
30.420593 12.992554 15.607086
30.609594 13.242554 15.377075
30.787094 13.587524 15.12207
31.024261 14.859192 15.47374
31.385317 15.684204 15.359833
32.026093 15.972351 15.228226
32.754097 16.207458 15.476364
33.187393 16.653564 15.389587
33.676548 17.057495 15.532074
33.840691 17.42749 15.078079
-7.615633 -11.75882 16.470245
-6.9593525 -11.857971 16.40181
-5.9633312 -11.900818 16.389893
-5.0043602 -11.803284 16.350662
-4.4359055 -11.687469 16.467072
-19.891083 -10.917847 16.336319
-19.069069 -10.98526 16.376114
-18.459904 -10.682465 16.522079
-8.979784 -10.813049 16.157578
-8.0791931 -11.509644 16.350174
-4.5655727 -11.592499 16.078751
-3.905859 -11.136169 16.204269
-3.006588 -10.821442 16.370834
-2.1950169 -10.730255 16.258194
-23.759861 -9.8366089 16.209351
-22.962303 -10.15094 16.29393
-21.975933 -10.161377 16.276733
-20.972855 -10.331116 16.288086
-20.381405 -10.602478 16.187088
-18.600243 -10.545837 16.122086
-17.913261 -10.308105 16.288803
-16.971684 -10.015015 16.339874
-16.30505 -9.7646484 16.372803
-12.90107 -9.8251953 16.316696
-11.952454 -10.076721 16.389206
-10.955011 -10.333679 16.268188
-9.9706249 -10.532227 16.302933
-9.4007645 -10.649658 16.369217
-1.7923603 -10.636597 16.419357
-0.96927261 -10.531067 16.277084
0.071516991 -10.423279 16.368088
1.0357866 -10.234009 16.345703
1.988698 -10.058167 16.414383
3.0307589 -9.9019775 16.4254
4.023509 -10.22699 16.513474
5.0490694 -10.507019 16.522522
6.0385351 -10.351135 16.474945
7.0722837 -10.027405 16.476776
7.7123837 -9.7739868 16.369446
-24.893059 -9.0986328 16.247849
-24.117844 -9.496582 16.510193
-15.805792 -9.4506226 16.337296
-15.014887 -9.1502686 16.401016
-13.988201 -9.4832153 16.290497
-13.323404 -9.6537476 16.510834
8.1881256 -9.4793701 16.357635
8.5916739 -9.1484375 16.414093
-26.839943 -7.9971313 16.313232
-25.960403 -8.4164429 16.288177
-25.382908 -8.6524658 16.452072
9.1853466 -7.9220581 16.213196
-27.948849 -6.987915 16.456329
-27.34716 -7.5549927 16.294586
9.5245943 -7.6724854 16.452087
10.049459 -7.4208984 16.356964
10.983351 -6.9694824 16.364227
11.553994 -6.6958618 16.365402
-29.719269 -5.9125366 16.225723
-29.001514 -6.2370605 16.286346
-28.381107 -6.5784912 16.273071
11.432795 -6.6624756 16.492081
12.098308 -6.4188232 16.368378
12.956276 -5.9552612 16.296585
-30.693455 -4.8899536 16.240601
-30.21344 -5.3849487 16.426666
13.44212 -5.6449585 16.519577
14.071937 -5.3538208 16.257355
14.97312 -4.9070435 16.392807
16.0327 -4.9389038 16.724197
17.048117 -4.843811 16.644379
17.589994 -4.7191162 16.618744
-31.562904 -3.852478 16.032074
-31.144409 -4.2234497 16.363037
15.497199 -4.6275024 16.162079
15.939198 -4.4509888 16.095642
17.255905 -4.6154785 16.11409
18.048992 -4.4024048 16.409546
18.778574 -3.9484863 16.29126
-32.752693 -2.9351196 16.365753
-31.995876 -3.2445068 16.350937
19.292034 -3.4525146 16.46727
19.644094 -3.0787354 16.437073
-33.121902 -2.5708618 16.450424
20.402405 -0.93450928 16.308075
20.604965 -0.72821045 16.253494
-34.578407 0.30749512 15.942093
-34.296848 0.19866943 16.418594
21.100153 -0.25073242 16.455002
21.631424 0.23455811 16.399063
-34.58741 0.45916748 16.25209
-34.450909 0.33752441 15.932068
22.09893 0.66522217 16.321503
22.681351 1.2200317 16.458969
23.175377 1.710083 16.302078
23.614166 2.1831665 16.236359
24.094078 2.7036743 16.351196
24.573544 3.2275391 16.347076
25.096733 3.8394165 16.360703
25.587093 4.3175049 16.592072
25.914036 4.6534424 16.263824
27.100689 4.7542725 16.467484
27.594345 4.9899902 16.484589
29.129093 10.140869 16.642075
29.318237 10.611816 16.266357
29.597343 11.147522 16.032074
29.798428 11.687439 16.388748
30.320095 13.040833 16.352081
30.502094 13.4375 16.232086
31.156902 14.973633 16.353958
31.788731 15.178406 16.477066
32.232796 15.537964 16.210358
32.872093 15.998657 16.268768
33.343872 16.4953 16.242081
33.731003 16.814819 16.478439
33.884094 17.367554 16.022079
-7.7431126 -11.71875 17.356277
-6.9814892 -11.777008 17.393097
-5.9678173 -11.811707 17.38501
-5.0105896 -11.764008 17.290161
-4.3659077 -11.687469 17.379578
-19.914886 -10.780914 17.359283
-18.973003 -10.879578 17.427368
-18.335655 -10.766235 17.397095
-9.6488132 -10.916138 17.440262
-8.8818607 -11.41272 17.399826
-8.1539974 -11.61438 17.403259
-4.7026196 -11.645355 17.612076
-3.9861336 -11.506897 17.279816
-2.9845524 -10.847626 17.361847
-2.1528397 -10.728516 17.032791
-23.479904 -9.6925049 17.212082
-22.9487 -9.8828735 17.216354
-21.956512 -10.103455 17.26416
-20.970978 -10.300049 17.303162
-20.251907 -10.617065 17.645721
-17.873386 -10.311035 17.261597
-16.955223 -9.9161987 17.434479
-16.410572 -9.7041626 17.428741
-12.822109 -9.776001 17.276566
-11.965488 -10.017517 17.344681
-10.967695 -10.246216 17.387497
-10.151449 -10.503418 17.362076
-2.5369072 -10.66748 17.262085
-1.9151726 -10.61676 17.363388
-0.9703083 -10.523865 17.218048
0.0034627914 -10.370605 17.280273
1.0371971 -10.1698 17.410736
2.0304098 -10.035522 17.351074
2.9705229 -10.187134 17.334717
4.0402184 -10.494141 17.431717
5.014287 -10.445129 17.398926
6.0056829 -10.205444 17.302567
6.9473858 -9.9005737 17.281372
7.6064944 -9.7025146 17.117081
-25.859356 -8.7229004 17.508118
-24.850368 -8.873291 17.324768
-23.975204 -9.3341675 17.443222
-23.36348 -9.5424805 17.737793
-15.925074 -9.4260864 17.260223
-14.959066 -9.0841064 17.298904
-13.97838 -9.3933716 17.207642
-13.29735 -9.6052856 17.277069
7.3601608 -9.6524658 17.488739
8.0380344 -9.3919067 17.416229
8.7380676 -8.9594116 17.281219
-27.507904 -7.7525024 17.422089
-26.955139 -8.1912842 17.293594
-26.02961 -8.5443115 17.148819
-25.351906 -8.6325073 17.317795
9.3420544 -7.9130859 17.212067
9.5748444 -7.7075195 17.282074
-27.855381 -7.1625366 17.388931
10.092838 -7.4003906 17.477234
11.02137 -6.9385986 17.353546
11.540094 -6.6991577 17.265411
-29.655449 -5.7479858 17.010284
-28.972694 -6.1489258 17.362656
-28.337749 -6.5348511 17.457458
12.058299 -6.4473267 17.384552
13.024961 -5.9366455 17.363007
13.569695 -5.7025146 17.012085
-30.512905 -4.7524414 16.972092
-30.056782 -5.1952515 17.358337
13.470994 -5.6375122 17.097076
14.039447 -5.401123 17.187775
15.042331 -5.1152344 17.194778
16.075632 -5.1862793 17.259003
16.960285 -4.9328003 17.298325
-30.940403 -4.1773071 17.391815
-30.441906 -4.5424805 17.782089
17.453569 -4.6325073 17.529587
18.069954 -4.2855225 17.369843
18.747204 -3.8220215 17.307541
-32.716824 -2.9799194 17.258606
-31.976696 -3.3867188 17.380722
-31.389301 -3.5844727 17.630066
19.252312 -3.3491821 17.495392
19.731516 -2.8882446 17.380508
-33.096439 -2.3358765 17.518753
19.983219 -2.5549927 17.488312
20.463274 -0.95050049 17.284088
20.637024 -0.78820801 17.462082
-34.135571 -0.0025024414 17.302078
21.088654 -0.30169678 17.329208
21.632719 0.19494629 17.334595
-34.581306 0.83953857 17.130081
-34.287907 0.34753418 17.462082
22.141954 0.68505859 17.360092
22.622894 1.1704102 17.380646
23.136135 1.718811 17.398834
23.615644 2.1812744 17.204559
24.14703 2.7952881 17.394516
24.686359 3.2408447 17.495407
25.064171 3.5720825 17.235855
26.089169 3.8571167 17.413193
26.640095 4.2520142 17.320282
27.185022 4.7653809 17.35672
27.567093 5.020813 17.122086
27.797094 5.6860962 17.652084
29.040295 10.105469 17.550095
29.287693 10.733521 17.560089
29.612345 11.497498 17.332077
30.355427 13.695862 17.680405
30.785154 14.17865 17.583847
31.151094 14.524658 17.213882
32.052933 14.917786 17.378189
32.622345 15.242493 17.624573
32.480095 15.377502 17.022079
32.981026 15.678589 17.246902
34.345207 16.150879 17.532089
34.567093 16.267517 17.625412
33.781929 16.650818 16.903763
34.806274 16.480225 17.471176
35.517094 19.357483 17.482071
35.610092 19.392456 17.467072
-6.8231926 -11.686798 18.077789
-5.8632832 -11.681244 18.049561
-18.70924 -10.726959 18.088745
-18.378407 -10.697449 18.072083
-9.855772 -10.966339 18.379562
-8.966711 -11.283325 18.391586
-7.9645882 -11.436615 18.41304
-6.9848671 -11.489685 18.457062
-5.9830799 -11.526001 18.448212
-4.9706249 -11.509186 18.358551
-3.9741859 -11.36145 18.289902
-3.0232372 -10.92807 18.294601
-22.689907 -9.7974854 17.910828
-21.964264 -9.9086304 18.307327
-20.967041 -10.120483 18.345551
-19.96587 -10.386841 18.400497
-19.010723 -10.482666 18.481262
-17.944538 -10.334473 18.340897
-17.066757 -9.8556519 18.325302
-12.690845 -9.741333 18.157944
-11.952139 -9.9421387 18.255554
-10.958326 -10.245361 18.322906
-10.309406 -10.599182 18.220413
-2.5655727 -10.612427 18.412079
-1.9229698 -10.556396 18.300629
-0.970047 -10.432373 18.352127
0.015532494 -10.28949 18.30629
1.0768919 -10.109802 18.471176
2.0178385 -10.174011 18.419495
3.0711374 -10.441833 18.358109
4.05233 -10.342346 18.521896
5.0272694 -10.14801 18.468246
6.0132017 -9.8918457 18.361893
6.7980728 -9.7463989 18.049896
-25.751957 -8.7944946 18.201569
-24.975407 -8.8292847 18.250778
-23.972687 -9.1143799 18.314728
-22.979767 -9.5252686 18.32515
-16.581478 -9.6210327 18.359238
-15.928736 -9.3026733 18.33075
-14.966728 -8.9938354 18.280685
-13.948999 -9.3181763 18.345413
-13.158562 -9.5556641 18.434235
6.5016937 -9.6425171 18.572083
7.1542263 -9.496582 18.399796
8.0318928 -9.1231079 18.441727
8.7105045 -8.7979736 18.270966
-26.877857 -8.0667114 18.298767
-26.208752 -8.4816895 18.46431
9.1702185 -8.3823242 18.241791
9.6096077 -7.7996216 18.417786
-27.806198 -7.1096191 18.367249
-27.299503 -7.5384521 18.637405
10.068871 -7.4204712 18.358658
11.047032 -6.8967285 18.360107
-28.857483 -6.0286255 18.436829
-28.287987 -6.4917603 18.457474
11.461294 -6.6574707 17.942078
11.985894 -6.4696045 18.362503
13.087378 -5.9263306 18.451233
13.962311 -5.7408447 18.664566
14.700807 -5.6824951 18.702087
-29.872799 -5.0933228 18.185257
-29.371727 -5.5461426 18.335724
14.091779 -5.5906372 18.201782
15.050958 -5.543335 18.303055
16.017879 -5.255188 18.301376
16.832756 -4.8203125 18.369888
-31.660908 -3.7467651 18.490662
-30.902676 -4.0744019 18.348007
-30.367905 -4.5564575 18.474075
17.316103 -4.5365601 18.399826
18.008656 -4.09729 18.301315
18.583534 -3.760498 18.180084
-32.612633 -2.8952026 18.28392
-32.059307 -3.4268188 18.324432
-31.368904 -3.6624756 18.122086
18.45636 -3.5824585 18.745407
19.037739 -3.3150635 18.316742
19.670338 -2.7802734 18.212082
-32.953281 -2.2312622 18.387711
19.909567 -2.4388428 18.473434
-33.38224 -1.1558228 18.558746
20.454554 -0.9465332 18.338074
20.594406 -0.82250977 18.269577
-33.898502 -0.16046143 18.256088
21.126774 -0.25299072 18.388763
21.634924 0.2255249 18.276077
22.143581 0.71026611 18.332092
22.639368 1.2167358 18.264603
23.181381 1.7168579 18.388596
23.669771 2.1775513 18.42131
-35.495571 3.1841431 18.445419
-35.409908 3.1375122 18.782089
24.153202 2.5339355 18.348877
25.054466 2.8908691 18.375443
25.625595 3.2514648 18.35907
26.120419 3.7037354 18.342072
26.64365 4.2230225 18.284286
27.107185 4.8286743 18.312973
27.469093 5.4375 18.707077
27.766146 5.7509766 18.261581
28.157093 6.4375 18.392075
29.009426 10.164185 18.172073
29.292595 10.859192 18.333755
29.549095 11.597473 17.862091
30.145094 13.242493 18.377075
30.367695 13.520508 18.53009
31.034576 13.90625 18.351135
31.873821 14.237488 18.582062
32.123619 14.561462 18.211655
32.960354 14.926636 18.445129
33.831291 15.105469 18.661102
33.351929 15.412476 18.047089
34.093468 15.640442 18.231232
34.562096 16.057556 18.492081
35.27726 18.535889 18.320419
-9.8967857 -10.847839 19.393097
-8.9754105 -10.99704 19.433456
-7.9730244 -11.111267 19.44133
-6.9716606 -11.178802 19.4366
-5.9721069 -11.212036 19.421234
-4.9742546 -11.16925 19.38327
-3.9748077 -11.092133 19.334579
-3.0235519 -10.869568 19.240555
-21.839542 -9.8054199 19.410828
-20.970448 -9.9091187 19.410675
-19.96349 -9.9839478 19.405197
-18.970375 -10.088928 19.41243
-17.974709 -10.050598 19.37561
-17.256626 -9.7720337 19.208923
-12.562048 -9.7067871 19.210678
-11.931519 -9.871521 19.152023
-10.95249 -10.338928 19.285004
-10.37162 -10.651062 19.494934
-2.5637398 -10.652466 19.197067
-1.9936867 -10.49176 19.185013
-0.9676075 -10.317932 19.37735
0.031297684 -10.186584 19.319397
1.0123625 -10.143616 19.315735
2.0330954 -10.260498 19.291168
3.0334616 -10.262878 19.25972
4.0152636 -10.076843 19.34256
5.0000372 -9.8739014 19.281525
5.7920446 -9.7554932 19.010086
-25.561905 -8.7624512 18.962082
-24.95145 -8.8804932 19.18898
-23.978367 -8.9579468 19.199265
-22.979332 -9.3292236 19.285797
-22.340965 -9.5931396 19.320801
-16.788761 -9.579895 19.250061
-15.974545 -9.1798706 19.276505
-14.966782 -8.8903198 19.294128
-13.962584 -9.2041016 19.363571
-12.962288 -9.5509033 19.158478
-12.381573 -9.6558228 19.442093
5.3631859 -9.5797729 19.71933
6.0855284 -9.4608154 19.451233
7.0088692 -9.2167969 19.315521
7.9256973 -8.8150635 19.397354
-26.681118 -7.8787842 19.176834
-26.005497 -8.3233032 19.327988
-25.436909 -8.6574707 19.467072
8.2891254 -8.5840454 19.616318
9.0392618 -8.2675171 19.30394
9.6750183 -7.7925415 19.462067
-27.721954 -6.8838501 19.279343
-27.112778 -7.3943481 19.419907
10.163221 -7.3505859 19.340332
10.946203 -6.9173584 19.226776
-28.762352 -5.9180298 19.41098
-28.147015 -6.4296875 19.460327
11.466754 -6.6364746 19.528076
12.032648 -6.3983154 19.366119
12.990922 -6.0462036 19.334167
14.036034 -5.8421631 19.338409
14.657125 -5.7175293 19.094574
-29.757618 -4.9866333 19.262436
-29.234383 -5.4689941 19.445572
15.091833 -5.4182739 19.406616
16.004761 -5.0007935 19.277252
16.577894 -4.7124634 19.13208
-31.608658 -3.741272 19.11084
-30.978237 -3.9961548 19.38118
-30.241764 -4.5057983 19.398254
16.388483 -4.6207886 19.750412
17.028852 -4.3574219 19.389374
17.792229 -3.9125366 19.214691
-32.529572 -2.7358398 19.138748
-32.00288 -3.2138672 19.327469
18.236002 -3.4771118 19.509567
18.983299 -3.0122681 19.256943
-32.714771 -2.137207 19.270752
-32.342506 -2.5504761 19.566086
19.416014 -2.5234375 19.580078
19.866234 -2.1448364 19.333588
-33.11932 -1.2841187 19.527069
20.351294 -1.3436279 19.46875
20.611706 -0.80877686 19.254593
-33.795189 -0.31695557 19.518097
-33.463905 -0.63244629 19.172073
21.13558 -0.21020508 19.399796
21.615604 0.2164917 19.332092
22.112452 0.68963623 19.358047
22.620113 1.1975098 19.333069
23.080746 1.6060181 19.291779
23.953171 2.1032715 19.359833
-35.486908 3.147522 19.152084
-35.322018 2.9252319 19.468735
24.390743 2.3615723 19.291061
24.963451 2.7526245 19.280777
25.574093 3.2642212 19.148758
25.496794 3.4525146 19.827087
26.010412 3.8166504 19.401123
26.455093 4.4355469 19.616089
26.871965 4.8362427 19.329224
27.347095 5.5321655 19.459427
27.766621 6.0569458 19.188904
27.997171 6.6428833 19.4944
28.909595 9.9041748 19.367096
29.216427 10.674133 19.442093
30.242918 13.065125 19.357941
30.790394 13.269531 19.556061
31.151562 13.523499 19.299301
31.961266 13.936096 19.318619
32.837494 14.199585 19.53009
32.473095 14.337524 19.062073
33.138836 14.51709 19.223587
33.759682 14.981079 19.321503
34.292961 15.737549 19.320084
34.583092 16.272461 19.212082
-9.5274067 -10.702454 20.152084
-8.8610878 -10.730591 20.213898
-7.9623222 -10.790649 20.332397
-6.9563274 -10.796722 20.41864
-5.9551544 -10.812531 20.441467
-5.0144272 -10.841003 20.350113
-3.9906921 -10.772369 20.256592
-3.1911678 -10.748749 20.127838
-21.982269 -9.9224243 20.476715
-20.934044 -9.9361572 20.437225
-19.973907 -9.7431641 20.280075
-18.946125 -9.7670288 20.287506
-18.12878 -9.7349854 20.207504
-11.923119 -9.8642578 20.304779
-10.962551 -10.273315 20.411591
-9.9921951 -10.491089 20.465317
-9.0332737 -10.572266 20.615219
-7.9724846 -10.615051 20.756256
-7.0084057 -10.661255 20.747086
-6.3279057 -10.672485 20.732086
-4.8102112 -10.659424 20.69133
-3.9088421 -10.653076 20.665848
-2.8681374 -10.575256 20.416992
-1.9945126 -10.390259 20.232773
-0.9726429 -10.183411 20.481918
0.026296616 -10.139771 20.436676
1.0329046 -10.156311 20.42807
2.0250425 -10.09259 20.378128
3.0279932 -9.9590454 20.306641
3.9434881 -9.8162231 20.17836
4.6876659 -9.7396851 19.92923
-24.763466 -8.8100586 20.173248
-23.979298 -8.8636475 20.316956
-22.988438 -9.2481689 20.400726
-22.454906 -9.6724854 20.172073
-19.974495 -9.6401367 20.669342
-19.01733 -9.6144409 20.708755
-17.862877 -9.5669556 20.523209
-16.95734 -9.447998 20.31572
-15.997591 -8.9862061 20.344818
-14.931053 -8.7837524 20.33934
-13.980145 -9.0880737 20.449768
-12.963835 -9.4815674 20.22522
-12.378506 -9.6344604 20.350082
4.3321571 -9.5949707 20.445206
5.0212421 -9.4320068 20.406235
6.0239353 -9.1595459 20.34697
6.9864416 -8.913269 20.21048
7.6125441 -8.6975098 20.167084
-25.827023 -8.024353 20.339066
-25.1744 -8.4094238 20.438507
-15.569906 -8.664978 20.739578
-15.173906 -8.6364746 20.721069
7.3538446 -8.6307983 20.540421
8.0689697 -8.3762207 20.448151
9.0196247 -7.9838257 20.291718
9.6160746 -7.7484741 20.062073
-27.540657 -6.7025146 20.262085
-26.976501 -7.1411743 20.239609
-26.309769 -7.5803223 20.482803
9.475894 -7.6224976 20.582092
10.067148 -7.3228149 20.457382
10.914604 -6.8639526 20.255981
-28.829117 -6.1503906 20.486664
-27.988113 -6.5491943 20.377029
-27.427906 -6.6374512 20.822083
11.365658 -6.6497192 20.374786
12.073942 -6.3850098 20.425201
13.036569 -6.062439 20.345413
13.842129 -5.8256226 20.168625
-29.751575 -4.8649292 20.276367
-29.403904 -5.2000732 20.147079
14.289542 -5.5361328 20.419861
15.014214 -5.1559448 20.358658
15.775639 -4.8488159 20.107544
-30.893902 -3.9868774 20.448212
-30.21463 -4.4124756 20.379364
16.194534 -4.4782104 20.432434
