ply
format ascii 1.0
comment PCL generated
element vertex 1585
property float x
property float y
property float z
element camera 0
property float view_px
property float view_py
property float view_pz
property float x_axisx
property float x_axisy
property float x_axisz
property float y_axisx
property float y_axisy
property float y_axisz
property float z_axisx
property float z_axisy
property float z_axisz
property float focal
property float scalex
property float scaley
property float centerx
property float centery
property int viewportx
property int viewporty
property float k1
property float k2
end_header
-12.497263 519.29083 128.48318
-11.49677 519.15009 128.3206
-10.41074 519.18079 128.65146
-9.5999765 519.63098 128.5838
-48.251373 520.83929 128.49791
-47.602077 520.45691 128.33961
-9.1269331 520.18829 128.315
-8.6413498 520.50751 128.71875
-49.341896 521.703 128.528
-48.753315 521.18311 128.67438
-8.1803331 521.10333 128.77
-50.251575 522.51715 128.49573
-49.833996 522.15363 128.36
-7.6116366 526.67841 128.32315
-7.3136744 527.31226 128.70767
-6.5439763 527.42725 128.37143
-5.5614362 527.41821 128.36543
-4.5000243 527.59058 128.59912
-3.8213847 527.86841 128.51614
-3.3679898 528.27753 128.4435
-2.235425 532.69629 128.1125
-1.9590999 532.95001 128.03
-2.1564 533.43896 128.64601
-1.5117084 533.43878 128.5714
-0.49912071 533.34906 128.57745
0.50050133 533.3761 128.5518
1.2115846 533.81158 128.41309
1.39546 534.1239 128.772
2.8293202 538.78998 128.25601
2.8679333 539.36993 128.68332
3.3704841 539.54285 128.34679
3.7336092 540.25726 128.57635
4.5105367 540.60614 128.30547
5.4882665 540.48029 128.31943
6.4672532 540.45703 128.50882
7.3938804 540.75562 128.60875
7.8370886 541.11328 128.52444
8.1749496 541.47498 128.384
-44.667999 546.39996 128.91
9.7287369 546.49817 128.41454
10.007 546.92999 128.79001
9.9617004 547.04999 128.28999
10.442619 547.57947 128.27238
10.648471 548.22058 128.66823
11.355143 548.71008 128.39287
11.685429 549.39191 128.66
12.228766 549.62354 128.34294
11.978001 550.06 128.95999
12.610257 550.3006 128.64647
13.409427 550.67719 128.46425
13.947 551.08502 128.45999
14.173 551.34998 128.32889
14.64639 552.52753 128.37697
15.177999 552.82996 128.0425
14.801167 553.23004 128.895
15.44032 553.55219 128.49998
16.023998 553.92999 128.17999
15.780901 554.25397 128.793
16.362888 554.54926 128.43358
16.806917 555.35504 128.72917
17.377077 555.62073 128.3726
17.7265 556.34711 128.65714
18.312298 556.71497 128.37448
18.619411 557.33649 128.58235
19.29443 557.64996 128.24857
18.935501 558.04498 128.605
19.521774 558.42407 128.46045
20.14925 558.73376 128.25125
19.7824 559.48199 128.646
20.497454 559.51367 128.30453
21.095335 559.75665 128.03667
20.674181 560.32275 128.40546
21.129 560.34662 128.35335
-28.207998 504.98398 129.108
-27.951668 504.9733 129.10667
-30.212734 505.88669 129.52733
-29.472813 505.53375 129.50978
-28.530001 505.34866 129.53806
-27.580675 505.60138 129.38652
-26.914 505.98669 129.25334
-31.465443 506.68085 129.37354
-30.687164 506.18625 129.5721
-27.190786 506.43213 129.77927
-26.539196 506.53448 129.39351
-25.882 506.67502 129.02251
-33.089832 507.92834 129.46834
-32.450039 507.44724 129.56334
-31.890751 507.04749 129.54498
-26.341351 507.26801 129.75848
-25.594692 507.61511 129.41515
-24.925333 507.93335 129.10333
-34.200218 508.80869 129.46304
-33.603207 508.34232 129.51178
-25.390215 508.30466 129.74965
-24.640469 508.59317 129.37383
-35.278149 509.7225 129.47096
-34.666462 509.21274 129.57423
-24.258963 509.39157 129.68884
-23.646677 509.55872 129.2726
-36.372093 510.82968 129.62738
-35.760502 510.59268 129.54999
-23.367777 510.25699 129.62482
-22.625654 510.61725 129.28278
-38.024002 511.99002 129.06999
-37.478035 511.56949 129.42599
-36.879627 511.08499 129.56125
-23.052666 511.06668 129.93666
-22.416929 511.38425 129.67641
-21.695423 511.70471 129.34103
-39.074249 512.92505 129.55
-38.497768 512.44635 129.56369
-37.969997 512.02002 129.56
-22.1415 512.20831 129.95499
-21.434464 512.42444 129.6059
-20.734684 512.65314 129.25526
-40.16362 513.8681 129.53125
-39.597336 513.38159 129.48363
-21.026001 513.06 129.66998
-20.418415 513.53326 129.63744
-19.504736 513.64142 129.4877
-18.507519 513.34656 129.55106
-17.599401 513.43689 129.50955
-41.24144 514.87817 129.4225
-40.635555 514.33234 129.53119
-17.093199 514.16797 129.616
-16.586802 514.94598 129.946
-42.286034 515.66498 129.498
-41.744099 515.20947 129.47141
-16.701801 515.42999 129.418
-43.409 516.62433 129.40321
-42.814915 516.12329 129.53917
-16.212999 516.39996 129.02
-45.118999 517.94006 129.76749
-44.489025 517.67279 129.5976
-43.901749 517.13501 129.26251
-15.778666 517.73663 129.08667
-46.157799 518.85535 129.64334
-45.574795 518.41138 129.408
-44.9725 518.01001 129.26001
-15.373358 518.68713 129.16286
-14.946501 518.97498 129.095
-12.33891 518.83801 129.58296
-11.5 518.6969 129.50578
-10.591811 518.82214 129.58379
-9.9868002 518.95001 129.74001
-47.218002 519.77924 129.48616
-46.69043 519.2995 129.59094
-15.323918 519.39923 129.59479
-14.756632 519.66846 129.33737
-13.362556 519.63306 129.47446
-12.736134 519.11401 129.414
-10.125999 519.03497 129.44
-9.4604473 519.44739 129.49644
-8.8850107 519.87115 129.67
-48.131397 520.87799 129.564
-47.752048 520.50055 129.3595
-15.096749 520.21252 129.9675
-14.400206 520.30817 129.60591
-13.867625 520.16119 129.53685
-8.5062189 520.28931 129.36441
-7.9737 520.66998 129.17
-49.353642 521.70648 129.53676
-48.688839 521.2345 129.60454
-50.235001 522.54285 129.4994
-49.827427 522.13928 129.49072
-6.4589996 526.87506 129.59811
-5.4513712 526.828 129.39333
-4.6320219 526.82001 129.86572
-8.0183001 527.82001 129.72
-7.5026584 527.39618 129.56271
-6.5154443 527.10669 129.18056
-5.5910068 527.05927 129.02646
-4.3944206 527.18048 129.43523
-3.7358716 527.60669 129.45943
-3.4012499 528.08252 129.28001
-2.9784 528.51996 129.86
-1.2352625 532.96497 129.62
-0.5817154 532.91541 129.61847
-2.1798131 533.58075 129.39133
-1.5869858 533.19568 129.3775
-0.4673982 533.05951 129.34288
0.51606905 533.25574 129.38194
1.1949061 533.685 129.5025
1.4744999 534.14502 129.435
2.8127 539.94 129.28
5.6595259 539.9104 129.42566
6.3844104 539.86896 129.50632
2.93435 540.25751 129.36501
3.5038881 540.4964 129.49312
4.4676614 540.43524 129.45831
5.1761332 540.13336 129.28334
6.6549153 540.11078 129.15616
7.4900837 540.42419 129.4987
8.0897503 540.815 129.735
8.0774002 541.20496 129.14001
-44.251003 545.72003 129.37929
-43.8815 545.30249 129.70001
-44.649662 546.17828 129.29668
9.7642632 546.55505 129.20876
10.322 547.96661 129.62666
9.9269505 548.04004 129.33499
10.365615 548.43616 129.40924
11.017 548.97998 129.03
10.723285 549.29926 129.56215
11.346045 549.65137 129.32318
11.710368 550.09583 129.71419
12.509701 550.24927 129.60965
13.478106 550.64496 129.46606
14.0445 551.12 129.07001
14.3216 552.90601 129.08
14.504963 553.54462 129.48038
15.115334 553.81 129.09332
14.728334 554.24341 129.79999
15.425665 554.51782 129.38112
15.785273 555.39728 129.74998
16.316668 555.53833 129.39293
16.751648 556.38586 129.69412
17.329239 556.62854 129.34048
17.638706 557.28229 129.61824
18.307335 557.71399 129.336
17.904501 558.125 129.94501
18.614845 558.36121 129.57652
19.225199 558.745 129.30502
19.58419 559.53381 129.66095
20.133333 559.89331 129.35666
19.948999 560.01001 129.81001
20.337267 560.63538 129.672
-29.454428 505.9043 130.33479
-28.743702 505.85297 130.29599
-31.319824 506.79028 130.42285
-30.544046 506.36813 130.47382
-29.47591 506.155 130.65773
-28.470898 506.42804 130.60364
-27.653864 506.56375 130.22794
-32.50481 507.62927 130.49001
-31.782316 507.13135 130.53453
-28.046 507.03998 130.80499
-27.412033 507.35092 130.59515
-26.604748 507.63394 130.23288
-34.136364 508.88544 130.61453
-33.514851 508.37766 130.46333
-27.183714 508.15854 130.91573
-26.432274 508.45697 130.63574
-25.663389 508.73941 130.285
-35.122818 509.78818 130.48273
-34.637741 509.30002 130.53444
-26.266598 509.27301 130.93999
-25.475504 509.48911 130.57677
-24.792355 509.55884 130.21236
-36.375217 510.73004 130.56186
-35.600208 510.5285 130.56677
-25.083857 510.31 130.8
-24.503696 510.47906 130.535
-23.673264 510.71689 130.11839
-37.538963 511.64215 130.47723
-36.867886 511.09 130.49556
-24.28282 511.18088 130.78728
-23.492117 511.48483 130.44829
-22.695251 511.81921 130.08583
-39.094799 512.94598 130.442
-38.474636 512.42365 130.49127
-23.407211 512.31891 130.85527
-22.572462 512.55328 130.46455
-21.92 512.88666 130.21666
-40.183228 513.85693 130.64615
-39.585197 513.34436 130.401
-22.312288 513.38165 130.81084
-21.532925 513.50946 130.36
-20.331568 513.78784 130.5374
-19.504814 513.5592 130.63684
-18.504896 513.52594 130.62616
-17.584499 513.71686 130.54063
-41.283161 514.90906 130.58702
-40.709274 514.46136 130.47726
-21.297068 514.13861 130.65399
-20.771294 514.12115 130.48764
-17.079144 514.13 130.37428
-16.563923 514.61743 130.53111
-42.395634 515.646 130.59631
-41.74155 515.1535 130.53499
-16.17625 515.22253 130.3725
-15.833667 515.51337 130.82668
-43.533257 516.58862 130.41829
-42.914997 516.09747 130.46751
-45.068333 517.95996 130.48334
-44.525238 517.68707 130.52603
-43.960999 517.04004 130.00999
-46.166203 518.836 130.51799
-45.503708 518.31061 130.51469
-44.789429 518.05005 130.88716
-12.432813 518.75659 130.57504
-11.50421 518.52802 130.62187
-10.508887 518.71606 130.53835
-9.9032745 518.96252 130.6875
-47.217449 519.81702 130.47501
-46.688965 519.34814 130.51372
-15.47625 519.95251 130.05251
-13.456 519.56976 130.47612
-12.933333 519.05334 130.49834
-9.458293 519.36285 130.47435
-8.8964005 519.89746 130.53
-48.050671 520.77997 130.46667
-47.667645 520.2796 130.42828
-15.329446 520.58496 130.37056
-14.427138 520.66486 130.42863
-13.927999 520.14008 130.63499
-8.4580994 520.46521 130.476
-49.244537 521.81763 130.57117
-48.560028 521.41083 130.45207
-15.206537 521.27539 130.82153
-14.820999 521.22546 130.67845
-8.2316666 521.11005 130.87666
-50.214867 522.77441 130.45374
-49.760811 522.25494 130.4975
-50.480217 523.21887 130.60333
-7.2193766 526.86523 130.74353
-6.4858751 526.63837 130.35306
-5.4897161 526.52124 130.28362
-4.5025911 526.68927 130.65645
-3.9430001 526.91003 130.72501
-8.2355928 527.55066 130.60066
-7.7221718 527.19574 130.57997
-3.4297812 527.48492 130.48155
-3.0064001 528.06995 130.46999
-2.8719168 528.25336 130.71501
-1.3378707 532.84467 130.37833
-0.49294516 532.68915 130.358
0.44415632 532.86108 130.4789
-2.1741798 533.43134 130.554
-1.8208898 533.14197 130.45999
0.76459605 533.06201 130.22
1.3847293 533.46368 130.54207
1.8675667 534.11664 130.39667
2.0351 534.25995 130.51001
4.93435 539.95996 130.545
5.5053787 539.69788 130.38646
6.4852724 539.64502 130.36279
7.1959667 539.87604 130.54001
3.7247667 540.6311 130.50279
4.4844823 540.29077 130.57823
5.0340996 540.02002 130.05
7.6688833 540.16779 130.59332
8.1924505 540.66083 130.52501
2.9707503 541.54004 130.6675
3.2805908 541.32812 130.48772
8.55128 541.17804 130.69798
-41.855 542.88 130.85001
-42.272629 543.54248 130.66
-41.933998 543.02002 130.81
-44.139496 544.80164 130.71999
-43.570332 544.56573 130.49763
-42.786667 544.26501 130.455
-44.55975 545.51105 130.42101
10.302833 548.97333 130.66833
9.9842997 549.17004 130.23999
10.540959 549.26959 130.35123
11.55811 549.77112 130.40277
12.131124 549.9325 130.5925
12.619999 550.13409 130.44818
13.34223 550.56226 130.34412
13.822499 553.69501 130.20332
14.108 553.755 130.01498
13.826334 554.20111 130.62445
14.435174 554.62219 130.38304
14.645334 555.28131 130.75133
15.341125 555.48492 130.29541
15.6756 556.38959 130.71249
16.283842 556.60577 130.33896
16.59296 557.44189 130.71964
17.325943 557.6911 130.25822
16.993999 558 130.77
17.591043 558.39557 130.58002
18.2794 558.79102 130.272
17.829998 559.138 130.90199
18.567266 559.44128 130.50368
19.2113 559.66394 130.13
18.835571 560.11993 130.87999
19.474602 560.40961 130.47121
19.778502 561.40167 130.78001
-31.122 506.91251 131.39001
-30.428904 506.69757 131.32878
-29.530058 506.6145 131.22815
-32.409767 507.76639 131.46593
-31.542765 507.25351 131.51233
-30.558214 507.07281 131.71069
-29.458469 507.50424 131.76196
-28.563877 507.50098 131.35448
-27.713362 507.77097 131.04454
-34.083141 508.91571 131.5157
-33.445736 508.45157 131.47827
-32.832802 508.06003 131.70131
-28.390654 508.27829 131.68129
-27.581001 508.56277 131.34906
-26.775444 508.87555 131.07333
-34.569168 509.35828 131.36827
-28.146002 509.18399 131.97
-27.429968 509.46368 131.71965
-26.566351 509.63614 131.33086
-36.360893 510.72852 131.48807
-35.504665 510.42258 131.54614
-34.930332 510.1033 131.70001
-27.107 510.34998 131.99001
-26.495689 510.46555 131.71669
-25.633034 510.50687 131.22343
-38.034 511.97 131.65001
-37.449688 511.54184 131.5769
-36.849201 511.121 131.31599
-26.071335 511.07999 131.75002
-25.445545 511.39825 131.61153
-24.583336 511.672 131.25069
-23.951 511.95001 131.03
-39.135113 512.86664 131.36334
-38.536915 512.38849 131.46211
-25.246222 512.16882 131.88223
-24.505875 512.56848 131.67276
-23.612787 512.67206 131.21054
-40.240383 513.78668 131.57446
-39.605904 513.26093 131.4872
-24.252546 513.19543 131.82545
-23.459711 513.46344 131.54172
-22.79228 513.67554 131.26501
-20.334307 513.73999 131.44348
-19.501236 513.43085 131.49554
-18.502028 513.38464 131.48155
-17.445061 513.66486 131.51299
-16.902498 513.90997 131.57126
-41.259472 514.93829 131.53528
-40.711002 514.42047 131.54498
-23.297998 514.41833 131.91167
-22.462748 514.45648 131.49524
-21.451271 514.58936 131.2818
-20.8216 514.17352 131.52998
-16.466951 514.33636 131.4254
-15.950334 514.93335 131.41335
-42.459358 515.68384 131.45035
-41.679192 515.12286 131.59329
-22.160099 515.34198 131.799
-21.724716 515.3772 131.76762
-15.773 515.23663 131.5975
-43.44149 516.50677 131.40558
-42.907902 516.104 131.56001
-44.283253 517.47443 131.43626
-43.949501 517.04999 131.64499
-46.111 518.88251 131.3875
-45.485821 518.41943 131.51122
-44.809074 518.13 131.58142
-12.388101 518.83337 131.42398
-11.478201 518.68573 131.48003
-10.614363 518.81915 131.44891
-9.9953003 518.96002 131.09
-47.171818 519.83093 131.54909
-46.5914 519.29901 131.53189
-13.374601 519.50873 131.50851
-12.753863 519.12183 131.74498
-10.282888 519.11945 131.77612
-9.5892477 519.49072 131.4545
-48.154083 520.76752 131.49834
-47.669098 520.30664 131.44617
-14.32764 520.63879 131.44122
-13.90675 520.07751 131.51875
-9.0827332 520.24664 131.77666
-8.7455845 520.49469 131.41884
-49.090336 521.95001 131.17999
-48.633797 521.58997 131.43668
-15.339827 521.76392 131.33476
-14.783099 521.29993 131.4805
-8.4356499 521.245 131.52126
-50.028 522.98999 131.37
-49.466461 522.3952 131.50381
-48.855 522.24664 131.77444
-16.016001 522.71997 131.92999
-15.712428 522.33142 131.73215
-50.154003 523.08002 131.34666
-7.4930239 526.79431 131.48567
-6.467495 526.47852 131.40492
-5.49227 526.42169 131.37688
-4.4900212 526.67291 131.46922
-3.9595668 526.95673 131.65666
-9.1776819 527.8681 131.70271
-8.5296803 527.41022 131.46838
-3.5146484 527.39288 131.43486
-9.506484 528.10669 131.69333
-3.0215333 528.13 131.86
-2.8234923 528.35925 131.53693
-1.3114806 532.8219 131.4639
-0.51106507 532.63879 131.51317
0.44019926 532.77979 131.50189
-2.27654 533.6405 131.483
-1.7924939 533.16815 131.61313
0.96437502 533.03497 131.77
1.5174751 533.4447 131.48813
2.0045998 533.95331 131.50667
-2.71615 534.41998 131.78401
2.1748455 534.22369 131.50092
-39.788998 539.92999 131.67999
4.8622847 539.92456 131.44693
5.4759049 539.62598 131.4959
6.5102448 539.59583 131.5054
7.2237873 539.8512 131.48312
-41.0495 540.92505 131.88499
-40.534706 540.52881 131.6312
-39.923004 540.09668 131.63335
3.7631142 540.80865 131.5977
4.361496 540.3222 131.56262
7.7313156 540.24103 131.64351
8.2309008 540.67322 131.52684
-41.338566 541.3681 131.49251
-40.945 541.04004 131.38
2.8033845 541.6908 131.59308
3.293941 541.23871 131.49139
8.6928892 541.31665 131.57001
-42.065002 542.89746 131.515
-41.88467 542.64667 131.58501
-43.289471 543.84528 131.40471
-42.577003 543.47681 131.36281
-44.234005 544.76495 131.57251
-43.723129 544.1767 131.39334
-44.551575 545.29572 131.37001
9.7429676 548.26752 131.69334
10.492128 548.38763 131.47676
11.2295 548.53253 131.53833
12.326429 549.8114 131.31429
12.769001 550.18994 131.34694
13.08 550.495 131.02
13.8472 554.76202 131.056
14.0925 554.89001 131.00999
13.892 555.58899 131.60701
14.32796 555.82007 131.48558
14.749643 556.37073 131.52286
15.222776 556.6839 131.24055
14.807167 557.12335 131.93001
15.592518 557.45746 131.52629
16.207891 557.85559 131.31221
15.947 558 131.64
16.529119 558.47607 131.54279
17.19075 558.75751 131.17749
16.859833 559.19 131.83667
17.489481 559.49841 131.5412
18.245165 559.7934 131.045
17.697598 560.18695 131.793
18.436848 560.52905 131.465
19.126251 560.87494 131.21249
18.710573 561.36713 131.75929
19.285 561.52155 131.3877
-32.181301 507.85461 132.31999
-31.502689 507.66049 132.31999
-30.556202 507.5672 132.23773
-29.901199 507.57803 132.01201
-34.078197 508.94598 132.26801
-33.489239 508.6192 132.47285
-32.579861 508.18069 132.64311
-31.492119 508.03711 132.79942
-30.449635 508.34064 132.67598
-29.564941 508.48627 132.37231
-28.726637 508.79544 132.09818
-34.417061 509.31625 132.49719
-30.216 509.14221 132.91556
-29.4515 509.52859 132.75639
-28.561777 509.50482 132.33934
-27.839142 509.86002 132.15715
-36.3783 510.72406 132.51675
-35.546108 510.29947 132.53546
-34.839165 510.21274 132.75333
-29.161572 510.12143 132.87143
-28.434616 510.39597 132.65678
-27.525097 510.5871 132.31151
-38.019001 511.99002 132.25999
-37.440941 511.55905 132.48117
-36.83807 511.08496 132.46643
-28.235888 511.38666 132.94557
-27.473654 511.52832 132.66069
-26.533228 511.54086 132.2372
-25.8685 511.76334 132.01833
-39.125919 512.88336 132.315
-38.505753 512.43079 132.48134
-37.93425 512.04004 132.6375
-27.118555 512.46893 132.85889
-26.558516 512.49969 132.65309
-25.577427 512.50745 132.20213
-40.207119 513.84937 132.39764
-39.577866 513.32654 132.40344
-26.31477 513.20612 132.82999
-25.440758 513.51117 132.55577
-24.554548 513.67816 132.21001
-23.958 513.96503 132.07001
-20.26643 513.81805 132.42534
-19.504786 513.50989 132.54143
-18.509792 513.46307 132.52225
-17.580534 513.70258 132.52621
-16.899668 513.96674 132.36665
-41.129333 514.97333 132.19667
-40.648415 514.40997 132.57823
-25.468056 514.23004 132.90054
-24.525545 514.52911 132.5806
-23.726944 514.56171 132.20058
-21.14609 514.66913 132.44182
-20.740738 514.21313 132.61736
-17.067667 514.05005 132.73668
-16.44145 514.50232 132.46001
-15.960499 514.95001 132.245
-42.34724 515.65698 132.51001
-41.518906 515.10321 132.4456
-40.936501 515.02002 132.655
-24.199537 515.4292 132.8392
-23.50679 515.46545 132.53447
-22.668756 515.57007 132.188
-21.504 515.50098 132.44106
-16.120199 515.11603 132.87399
-15.818285 515.52216 132.50429
-43.469509 516.61652 132.44547
-42.887501 516.10498 132.5775
-23.255253 516.47906 132.85248
-22.464909 516.45996 132.53394
-21.840921 516.46228 132.55539
-15.824 516.14502 132.935
-44.266457 517.33997 132.51805
-43.965668 517.05005 132.54668
-22.403666 517.17523 132.79266
-21.954998 517.16003 132.785
-46.117329 518.93109 132.34778
-45.486774 518.54059 132.56488
-44.842136 518.284 132.504
-12.1696 518.92798 132.006
-11.550706 518.84772 132.01355
-47.12933 519.87555 132.3989
-46.555462 519.36786 132.54536
-13.273266 519.74396 132.37265
-12.496106 519.51544 132.56343
-11.494785 519.34302 132.58377
-10.495297 519.56818 132.50327
-9.7458897 519.78442 132.17557
-48.078201 520.80994 132.20401
-47.618919 520.44476 132.4986
-14.19765 520.72101 132.388
-13.679211 520.3764 132.61607
-10.205572 520.38147 132.96286
-9.5298834 520.45312 132.4888
-48.307999 521.33539 132.49924
-15.160601 521.87598 132.48399
-14.660692 521.33307 132.58463
-9.289525 521.33832 132.74666
-8.8063793 521.505 132.254
-16.011 522.73999 132.40001
-15.596657 522.32031 132.49937
-9.2137327 522.12329 132.79666
-49.059998 523.33997 132.10001
-48.925247 523.34003 132.10001
-7.3993425 526.81842 132.46536
-6.4978046 526.65717 132.55296
-5.502295 526.66632 132.52605
-4.658597 526.83582 132.34729
-9.2451773 527.86108 132.46999
-8.4605722 527.37268 132.472
-7.8722615 527.08228 132.63002
-4.2554722 527.15936 132.61002
-3.6068161 527.60602 132.37599
-10.18189 528.48889 132.49666
-9.7375174 528.18555 132.38722
-3.2154934 528.36603 132.67467
-2.89342 528.67798 132.408
-1.18085 532.90009 132.34665
-0.47055224 532.85052 132.54909
0.37085381 532.84161 132.325
-2.258337 533.69257 132.40842
-1.5751599 533.18903 132.552
-0.91839999 533.00336 132.78
0.54999161 533.1333 132.61189
1.3855295 533.55237 132.45853
-3.0302999 534.87006 132.74001
-2.7275274 534.35052 132.59001
1.8301699 534.22296 132.672
2.1370285 534.58282 132.43001
-3.2613862 535.50323 132.51591
-4.2884274 536.89001 132.56273
-3.7401776 536.36835 132.50833
-4.504189 537.12891 132.92221
-39.118 538.97498 132.815
-40.107334 539.92169 132.35834
-39.58165 539.43317 132.49271
4.9653001 539.96997 132.15999
5.5759692 539.82758 132.36969
6.4623117 539.8432 132.38127
7.0848498 539.97498 132.10501
-41.0812 540.82605 132.692
-40.580219 540.33514 132.47002
3.89205 540.83002 132.47375
4.4692883 540.45703 132.49139
5.0750499 540.04248 132.5025
6.8316336 540.28339 132.87556
7.4795761 540.40076 132.52373
8.1426868 540.90753 132.465
-41.3918 541.302 132.45601
2.5716565 541.82233 132.57562
3.4104657 541.27551 132.55829
8.4704189 541.43756 132.60428
-42.479843 542.74078 132.50078
-41.915249 542.24249 132.595
1.8134779 542.16785 132.88446
2.2128999 542.11005 132.39168
8.7671995 542.06995 132.78
-43.344788 543.50964 132.4425
-42.789143 543.09143 132.15572
-44.178219 544.58557 132.45001
-43.882568 544.1886 132.34
9.6031151 547.94995 132.69846
10.270909 547.91364 132.68907
8.8406553 548.21777 132.58667
9.4249735 548.0816 132.40581
10.609809 548.06616 132.4095
11.519677 548.38318 132.44356
12.104751 548.71997 132.7925
12.33 549.11499 132.79001
13.921666 556.16998 132.24333
14.212167 556.14838 132.23999
13.949999 557.07996 132.48
14.515929 557.38861 132.37428
15.084001 557.91998 132.2
13.840876 558.37628 132.71249
14.4446 558.68994 132.48251
15.501196 558.42883 132.23439
16.048 558.45502 132.01498
14.731923 559.55615 132.72307
15.496135 559.776 132.48199
16.386524 559.48291 132.25807
15.527502 560.32648 132.65714
16.571913 560.37787 132.55264
17.446383 560.69 132.31383
18.105667 560.9433 132.07335
16.504 561.61621 132.76375
17.652666 561.53497 132.56917
18.335001 561.56995 132.231
16.943001 562.03998 132.63
18.9205 562.12 132.09
19.028 562.16003 132.07001
-33.321842 508.85159 133.21364
-32.49987 508.63611 133.26048
-31.531658 508.73401 133.20261
-30.82025 508.79749 133.0325
-34.184536 509.53384 133.24307
-33.645035 509.2659 133.4882
-32.490593 509.41223 133.75368
-31.448603 509.52997 133.52304
-30.586336 509.49857 133.2189
-29.896 509.70996 133.01401
-36.279583 510.84 133.49106
-35.45256 510.36038 133.50438
-34.557461 510.32233 133.65894
-33.829861 510.26431 133.90286
-32.1675 510.03 133.93166
-31.503857 510.31146 133.83141
-30.474634 510.51031 133.53766
-29.514999 510.66281 133.19667
-28.975 510.98001 133.09001
-37.440067 511.69336 133.51022
-36.740337 511.16614 133.51888
-31.064667 511.11331 133.98001
-30.444086 511.34439 133.83958
-29.574148 511.51855 133.5838
-28.703825 511.51001 133.19261
-39.035004 512.93671 133.5
-38.500515 512.52985 133.53459
-37.895248 512.0675 133.59375
-29.278997 512.51215 133.8405
-28.484436 512.41254 133.48157
-27.683538 512.59711 133.19667
-40.161999 513.87329 133.45866
-39.585274 513.39026 133.44527
-28.442631 513.49402 133.82927
-27.423719 513.4834 133.47311
-26.521044 513.67499 133.1373
-20.0825 513.98499 133.315
-19.436399 513.85474 133.4304
-18.601879 513.77759 133.43001
-17.740364 513.88092 133.28819
-40.668144 514.53894 133.50191
-28.10675 514.0625 133.87
-27.501348 514.36804 133.76302
-26.545126 514.52026 133.47646
-25.647427 514.77502 133.22
-21.138401 514.84399 133.08601
-20.540159 514.44843 133.50702
-19.653614 514.07159 133.65387
-18.291529 514.11823 133.69119
-17.441042 514.44678 133.60217
-16.739277 514.60718 133.19057
-42.375084 515.74963 133.55229
-41.476849 515.15912 133.47885
-40.939499 515.04999 133.8075
-27.213221 515.35999 133.94444
-26.410501 515.58649 133.72577
-25.467001 515.46149 133.35538
-24.759777 515.56561 133.12668
-21.299824 515.4231 133.46915
-20.908501 515.10498 133.8625
-17.012001 515.03998 133.78
-16.465 515.44965 133.45535
-15.959001 515.86005 133.02
-43.434532 516.65875 133.46072
-42.865749 516.15625 133.38249
-25.431791 516.28839 133.6721
-24.48 516.49542 133.31001
-23.779625 516.44 133.04875
-21.616888 516.37439 133.6011
-16.228418 516.26416 133.715
-15.951 516.47003 133.33
-44.314949 517.44843 133.50749
-43.898499 517.11743 133.60999
-25.227249 517.12 133.84125
-24.43128 517.4231 133.636
-23.592813 517.49957 133.35262
-22.522842 517.8053 133.09262
-21.843624 517.57123 133.325
-45.378353 518.83093 133.50694
-44.840366 518.51093 133.53001
-24.317499 518.3399 133.92999
-23.424435 518.56635 133.66467
-22.423389 518.55518 133.42349
-21.925251 518.255 133.6575
-46.430424 519.54803 133.3381
-45.716831 519.10168 133.72585
-23.233376 519.45123 133.94876
-22.640036 519.31177 133.77284
-12.283 519.98676 133.13667
-11.514263 519.93048 133.12947
-10.920667 519.95996 133.10335
-47.241215 520.57721 133.29358
-46.723732 520.30341 133.71666
-14.025 520.98999 133.25
-13.390336 520.68213 133.3443
-12.517453 520.39899 133.4391
-11.529318 520.48413 133.53076
-10.580639 520.57788 133.28555
-9.9162664 520.93671 133.16667
-47.597713 521.22858 133.31287
-15.142547 521.85638 133.19637
-14.510159 521.44751 133.48697
-13.571695 521.17267 133.8504
-12.440769 521.0531 133.9646
-11.416667 521.19666 133.89598
-10.473096 521.51709 133.59094
-9.7126856 521.45715 133.1693
-16.144918 522.81085 133.72334
-15.578001 522.33606 133.50394
-10.37557 522.31927 133.78214
-9.7241993 522.29999 133.28
-16.62413 523.26611 133.62523
-9.2038355 527.89569 133.32787
-8.4982357 527.64661 133.4389
-7.5053515 527.33502 133.50861
-6.507051 527.17999 133.52859
-5.4665928 527.27838 133.52463
-4.5502143 527.6283 133.45926
-3.8071859 527.82434 133.07715
-11.0455 528.58997 133.88501
-10.457301 528.4162 133.5134
-9.7049437 528.1579 133.48642
-4.3137102 528.21497 133.83299
-3.6810665 528.50238 133.41476
-4.0008998 529.21997 133.99001
-3.4852221 529.27667 133.48889
-2.1826358 533.78925 133.21429
-1.475546 533.57037 133.48859
-0.50395429 533.4223 133.53499
0.44850874 533.53143 133.41725
1.163489 533.81226 133.25999
-3.0172 534.95001 133.11
-2.5410345 534.56586 133.61757
-1.9315001 534.06329 133.83333
0.7876761 534.20844 133.86845
1.4492482 534.48584 133.56097
2.0868001 534.75 133.04332
-37.164001 535.85748 133.70001
-3.3252831 535.52039 133.511
-2.9164 535.05249 133.765
1.7822899 535.38794 133.65701
2.0513 535.375 133.33499
-37.425747 536.15747 133.61749
-5.1145329 536.97662 133.03999
-4.2514687 536.76685 133.47316
-3.8658068 536.27802 133.51132
-38.23225 537.85999 133.78374
-5.4036503 537.49701 133.45436
-4.6625009 537.32745 133.33664
-39.229084 538.77417 133.52249
-38.682426 538.29236 133.60953
-5.6314769 538.13306 133.94383
-40.255138 539.74408 133.47365
-39.734795 539.26697 133.41199
-41.144573 540.78998 133.35857
-40.775787 540.29358 133.465
4.6809959 540.73322 133.40198
5.4855318 540.32642 133.39609
6.4505253 540.50555 133.3745
7.4118996 540.8053 133.24117
-42.092335 541.91669 133.73
-41.642498 541.43951 133.52701
1.95755 541.97498 133.6225
2.5554039 541.82294 133.50932
3.4655681 541.43396 133.4966
4.1989155 541.09534 133.47232
6.8135161 541.20996 133.965
7.5430803 541.40417 133.64758
8.256135 541.63361 133.26089
-43.07 542.99005 133.81999
-42.556332 542.47253 133.45259
0.93883663 542.36005 133.76668
1.5140849 542.16156 133.61542
8.3582354 542.41858 133.53642
-43.477764 543.48767 133.54846
-44.140102 544.453 133.451
-43.921803 544.14606 133.502
9.557869 547.92371 133.58369
10.3629 547.93396 133.52229
6.8900747 548.69751 133.81749
7.5428824 548.50269 133.66563
8.489151 548.21161 133.57254
9.3415432 548.01068 133.7357
10.740059 548.11475 133.6947
11.473906 548.33276 133.49051
12.206274 548.81543 133.49364
12.539333 549.3017 133.65666
13.322001 557.96997 133.48
13.654143 558.50067 133.38501
14.122749 558.78503 133.21251
13.570001 559.03503 133.61499
14.45425 559.26001 133.0625
15.052 560 133.28999
-33.274181 509.6864 134.06363
-32.805252 509.80878 134.015
-36.1035 510.91 134.16249
-35.438309 510.71777 134.40157
-34.530632 510.66504 134.42657
-33.523499 510.87781 134.10777
-32.48774 510.44571 134.21262
-31.676785 510.79141 134.08858
-37.234276 511.82227 134.49666
-36.536404 511.41748 134.50171
-35.590641 511.23077 134.82082
-34.458912 511.3078 134.81
-33.561485 511.50485 134.52756
-32.6231 511.854 134.27299
-31.449125 511.62671 134.23293
-30.944 511.965 134.20001
-39.005001 512.96002 134.10001
-38.430336 512.70294 134.46263
-37.722095 512.19598 134.52451
-33.292049 512.4425 134.82899
-32.56126 512.55664 134.485
-30.469427 512.44818 134.17393
-29.826857 512.44427 134.02713
-40.078499 513.90997 134.34001
-39.458298 513.46167 134.45044
-38.796158 513.08923 134.77077
-32.195248 513.35919 134.71001
-31.584908 513.47839 134.31656
-30.472111 513.18549 134.19221
-29.51095 513.39954 134.10501
-28.885401 513.68005 134.00601
-40.420048 514.39001 134.46259
-32.090752 514.01501 134.94751
-31.407248 514.18646 134.74251
-30.550938 514.7265 134.39781
-29.485056 514.55109 134.46255
-28.567331 514.71045 134.25459
-27.907667 514.97333 134.07666
-20.167112 514.62775 134.09332
-19.518789 514.56897 134.22475
-18.536892 514.58435 134.21597
-17.957001 514.98004 134.29999
-42.207417 515.8158 134.34584
-41.487999 515.37311 134.53944
-40.845547 515.26996 134.61728
-30.302092 515.12994 134.73999
-29.754004 515.22821 134.82997
-28.394312 515.3681 134.44749
-27.547224 515.59296 134.2178
-26.553078 515.97229 134.25693
-25.992001 515.98999 134.20001
-21.117289 515.8457 134.18857
-20.488022 515.51282 134.54854
-19.523054 515.20367 134.75
-18.412449 515.36688 134.79135
-17.544022 515.51733 134.49977
-16.775873 515.71002 134.05251
-43.174911 516.72363 134.37
-42.640026 516.34143 134.55794
-29.061501 516.93506 134.85001
-28.5212 516.79401 134.53899
-27.510389 516.48999 134.56723
-26.498598 516.03436 134.54358
-25.778728 516.09906 134.24818
-21.263081 516.52795 134.55681
-20.7181 516.16907 134.87
-17.198351 516.35449 134.8165
-16.517441 516.64136 134.61752
-44.226898 517.77301 134.42252
-43.626366 517.32764 134.64366
-28.424274 517.4563 134.80817
-27.543428 517.79956 134.58191
-26.550531 517.85944 134.51117
-25.54047 517.7583 134.13469
-21.622643 517.44727 134.57121
-16.087332 517.05664 134.23332
-44.452091 518.19818 134.64546
-27.412571 518.41284 134.72141
-26.440763 518.54712 134.56003
-25.517029 518.51105 134.38693
-24.664083 518.56744 134.13521
-22.091415 518.68335 134.50166
-21.927799 518.27203 134.69199
-16.917999 518.12 134.95999
-46.188004 519.76501 134.05666
-45.424435 519.5119 134.33105
-44.869221 519.42664 134.33221
-27.053999 519.02502 134.94501
-26.513527 519.43738 134.80528
-25.442524 519.69733 134.61693
-24.513521 519.42255 134.33186
-23.575897 519.55164 134.10803
-22.470476 519.56189 134.42142
-46.234001 520.61139 134.18286
-45.44743 520.28857 134.50285
-44.70142 520.17664 134.55916
-26.015001 520.09998 134.98
-25.49037 520.42053 134.87103
-24.454407 520.47253 134.66125
-23.516487 520.70599 134.53755
-22.804001 520.2735 134.45471
-12.748501 520.96997 134
-45.762001 521.19501 134.28
-44.262005 521.0827 134.76093
-43.869801 521.32196 134.67601
-24.243111 521.64667 134.95776
-23.648924 521.66229 134.90079
-15.038 521.96002 134.14999
-14.397103 521.78143 134.3679
-13.495556 521.57495 134.46443
-12.495526 521.43115 134.48395
-11.570001 521.60254 134.28584
-10.936 521.94 134.045
-43.422375 522.11371 134.81749
-16.158077 522.87994 134.61076
-15.503126 522.43066 134.51489
-14.809555 522.08228 134.53444
-12.1215 522.21252 134.9725
-11.507306 522.47742 134.64349
-10.822555 522.59558 134.22665
-45.355862 523.48431 134.06714
-44.959 523.56 134.03999
-42.332619 523.43542 134.87692
-41.970001 523.57001 134.83
-16.647869 523.13782 134.55261
-11.28007 523.45782 134.79356
-10.964 523.46997 134.56
-41.368 524.638 134.98199
-40.863197 524.716 134.946
-40.236332 525.88892 134.95554
-39.911331 525.93335 134.93333
-39.764168 527.78497 134.85333
-9.1008005 527.95502 134.0325
-8.4339828 527.85504 134.16209
-7.4900031 527.80371 134.26372
-6.4935861 527.74066 134.19611
-5.5831208 527.65784 134.03001
-41.334259 528.4621 134.43912
-40.596668 528.37097 134.60715
-39.980999 528 134.79001
-11.149899 528.29504 134.73201
-10.499667 528.25787 134.68025
-9.4816341 528.12311 134.56706
-8.52738 528.12726 134.71631
-7.4764004 528.32111 134.79388
-6.4454308 528.46826 134.68999
-5.5595732 528.48547 134.43034
-4.5433669 528.68933 134.16531
-6.0331001 529.06 134.95999
-5.4460807 529.3924 134.72903
-4.65239 529.44897 134.364
-37.431667 530.32336 134.97554
-36.538334 531.62 134.95665
-38.212379 532.46149 134.53461
-37.764084 532.35583 134.70251
-35.235001 533.70496 134.92
-34.764 533.88 134.99001
-1.0726 533.94336 134.12334
-0.54371631 533.94464 134.10933
0.029007001 533.96997 134.09001
-36.073166 534.96832 134.56166
-35.630058 534.7464 134.68263
-2.1178875 534.66003 134.17625
-1.5413942 534.41101 134.26001
-0.46219102 534.58612 134.55386
0.43474692 534.47717 134.25522
1.0417 534.89001 134.27
-37.344002 535.66718 134.45192
-36.589535 535.22424 134.49712
-3.2245681 535.77631 134.46227
-2.5923271 535.37012 134.56755
-1.4959706 535.08472 134.75471
-0.38857955 535.38361 134.88356
0.40865287 535.43292 134.72957
1.2891643 535.49432 134.25214
-37.693668 536.12335 134.30333
-4.3090863 536.67865 134.55592
-3.6617858 536.20392 134.58322
0.72665775 536.37335 134.78557
1.0251 536.53998 134.64
-38.46722 537.73999 134.65388
-6.1739402 537.94397 134.01401
-5.2866802 537.65839 134.57881
-4.7975497 537.2157 134.36214
0.74983001 537.12 134.88
-39.403862 538.63727 134.48772
-38.876751 538.15125 134.48125
-6.3376398 538.66266 134.45523
-5.7963295 538.29858 134.45714
-40.374752 539.53998 134.63048
-39.833553 539.08893 134.35333
-6.8180857 539.26141 134.89429
-41.23653 540.61707 134.4194
-40.813503 540.14502 134.32375
4.9144502 540.90753 134.105
5.4197073 540.56854 134.19214
6.2717566 540.94427 134.05714
-42.210667 541.82166 134.28333
-41.786858 541.37854 134.26857
1.8676666 541.97333 134.35333
2.5520329 541.91443 134.57034
3.5283825 541.69537 134.50304
4.4720922 541.39642 134.44606
5.5289321 541.52942 134.53674
6.4495006 541.62335 134.30809
7.1491003 541.98499 134.22
-43.129166 542.89667 134.565
-42.67358 542.36578 134.41737
0.73254323 542.2395 134.49368
1.4822097 542.07379 134.53322
2.20892 542.01801 134.332
5.7878499 542.35992 134.98001
6.5025768 542.43591 134.6926
7.4480414 542.48083 134.26247
-43.403217 543.28107 134.35445
6.9231501 543.065 134.73999
7.8744502 543.38501 134.14
-43.848999 544.09497 134.38
6.5696616 548.76611 134.51144
7.5043068 548.57843 134.50722
8.4984722 548.27802 134.57237
9.5114241 548.15033 134.58469
10.499934 548.3136 134.51001
11.4301 548.68939 134.42567
12.080667 548.93671 134.11
11.765454 549.16364 134.77272
12.21623 549.41919 134.49463
-36.336998 511.99002 135.19
-38.054333 512.72998 135.01001
-37.406662 512.58893 135.19373
-36.505604 512.47339 135.29683
-35.555527 512.38672 135.24471
-34.488499 512.18005 135.08298
-33.838501 512.33832 135.01834
-39.327091 513.86816 135.17363
-38.480446 513.47949 135.31802
-37.580593 513.57703 135.51852
-36.503651 513.79895 135.60352
-35.512936 513.5462 135.4731
-34.486595 513.16449 135.26199
-33.490204 513.50598 135.13553
-32.641357 513.81854 135.02002
-40.158916 514.50336 135.20418
-39.52869 514.47699 135.56955
-38.536427 514.31311 135.69403
-37.532906 514.30725 135.82138
-36.480801 514.53699 135.759
-35.405067 514.50964 135.60928
-34.532799 514.47614 135.5056
-33.50605 514.45203 135.34898
-32.5084 514.75946 135.21298
-31.9515 514.95496 135.14
-30.252899 514.94598 135.508
-29.436966 514.80145 135.47501
-28.923748 514.76501 135.215
-41.342079 515.75677 135.3188
-40.60503 515.69855 135.35757
-39.335583 515.435 135.84583
-38.482304 515.25403 135.87952
-37.482738 515.39111 135.81371
-36.480156 515.25372 135.82791
-35.486 515.46057 135.741
-34.4216 515.44403 135.65161
-33.476379 515.52222 135.53331
-32.511101 515.47101 135.39348
-31.470234 515.43658 135.18314
-30.581194 515.30579 135.19386
-29.607498 515.10254 135.40939
-20.052668 515.67999 135
-19.451973 515.68225 135.1189
-18.560345 515.75031 135.12929
-42.375099 516.6217 135.31035
-41.624104 516.24524 135.48721
-40.486572 516.33997 135.59143
-39.86525 516.35498 135.58499
-37.174858 516.43567 135.97571
-36.510311 516.59161 135.91316
-35.495163 516.38104 135.95103
-34.500603 516.68604 135.83298
-33.493843 516.86414 135.75369
-32.467503 516.12671 135.465
-31.493902 516.40002 135.35698
-30.642765 516.59076 135.28
-21.019001 516.70996 135
-20.391272 516.50354 135.27545
-19.507 516.62329 135.63327
-18.563 516.63275 135.58035
-17.75675 516.41943 135.18748
-43.332954 517.47998 135.18524
-42.552586 517.34418 135.47749
-41.478443 517.54053 135.75391
-40.487106 517.1922 135.83333
-39.502766 517.53857 135.70525
-38.940002 517.90002 135.58501
-34.153999 517.46246 135.97751
-33.513214 517.66522 135.90211
-32.530704 517.44983 135.73328
-31.484423 517.41064 135.53896
-30.500103 517.65417 135.44159
-29.473202 517.65051 135.19852
-28.877251 517.33252 135.0125
-21.306864 517.64319 135.37047
-20.648151 517.25769 135.63231
-18.208237 517.4541 135.80707
-17.523361 517.43842 135.39922
-16.999001 517.98999 135
-44.053997 518.39667 135.07666
-43.473362 518.57269 135.27275
-42.594501 518.39929 135.52286
-41.383068 518.84143 135.74713
-40.487411 518.22943 135.90822
-39.492653 518.08801 135.92599
-38.563412 518.51825 135.77412
-32.312401 518.38397 135.85001
-31.487314 518.09631 135.72211
-30.501053 518.37793 135.61211
-29.446928 518.49152 135.43593
-28.579748 518.52539 135.24179
-27.62343 518.69568 135.05785
-22.080799 518.85004 135.356
-21.600065 518.41034 135.62967
-20.983 518.03998 135.95999
-17.458473 518.34479 135.62471
-43.395 519.04999 135.35001
-42.34309 519.50275 135.57362
-41.896751 519.1225 135.675
-39.529087 519.66498 135.93834
-38.440128 519.42621 135.98248
-37.544998 519.70557 135.87613
-32.326588 519.07172 135.93416
-31.506159 519.13849 135.89316
-30.511898 519.39154 135.79265
-29.518423 519.68695 135.67892
-28.499681 519.42365 135.45053
-27.504349 519.40845 135.22697
-26.532473 519.73468 135.10294
-22.361851 519.50897 135.50499
-17.2582 519.50006 135.72099
-41.071667 520.8833 135.61333
-40.46994 520.33881 135.7594
-39.952999 520.06 135.83
-37.043999 520.02002 135.77
-36.267834 520.90668 135.97333
-31.142002 520.45398 135.98
-30.47858 520.47528 135.95683
-29.496334 520.61841 135.88945
-28.463135 520.44403 135.73569
-27.561096 520.36804 135.47189
-26.4949 520.64648 135.29001
-25.856833 520.92999 135.21667
-23.099142 520.87714 135.44
-22.785868 520.32672 135.578
-17.090399 520.49402 135.76401
-16.994499 520.755 135.72
-41.195 521.04004 135.57001
-39.380001 521.73749 135.80333
-38.762775 521.31335 135.91446
-36.153 521.01001 135.94
-30.169399 521.59406 135.98799
-29.522715 521.57001 135.98141
-28.22575 521.83118 135.86874
-27.532648 521.33899 135.679
-26.511105 521.59784 135.52002
-25.523817 521.43048 135.25589
-24.747 521.39801 135.04698
-23.385065 521.41687 135.56749
-16.91 521.25 135.755
-14.167429 521.94 135.10428
-13.515119 521.93823 135.08998
-40.237503 522.54877 135.58125
-39.861252 522.14496 135.68999
-38.28056 522.71448 135.85667
-37.789249 522.44379 135.92625
-27.396601 522.31451 135.79948
-26.495737 522.39209 135.65947
-25.419998 522.4986 135.46465
-24.5485 522.37823 135.28729
-23.798229 522.44922 135.40767
-16.284538 522.90924 135.54076
-15.459253 522.64215 135.49719
-14.555019 522.29016 135.47414
-13.494436 522.28644 135.58691
-12.575091 522.44128 135.30321
-11.934999 522.93494 135.125
-39.305885 523.58777 135.62224
-38.791126 523.14124 135.74373
-37.459503 523.88501 135.97
-27.071333 523.03668 135.95667
-26.483631 523.25055 135.87947
-25.488111 523.53998 135.76778
-24.474707 523.40002 135.55969
-23.970001 523.02997 135.39999
-16.48711 523.02606 135.40277
-12.214438 523.37811 135.77563
-11.742316 523.56683 135.38684
-41.212337 524.52667 135.01167
-38.282001 524.66669 135.75334
-37.757 524.12622 135.90126
-26.193253 524.48126 135.97624
-25.459375 524.64557 135.90625
-24.668251 524.7525 135.85498
-11.482334 524.37665 135.59749
-38.632 525.09497 135.63499
-36.501083 525.68671 135.87334
-35.644001 525.26001 135.98
-39.181858 526.81 135.13
-38.936001 526.83997 135.11501
-37.279335 526.56445 135.63
-36.949501 526.29999 135.7
-35.119499 526.83502 135.965
-34.357998 526.67999 135.98999
-39.473 527.19 135.02499
-38.248001 527.8667 135.26332
-37.979 527.96002 135.23001
-36.270996 527.89502 135.67499
-35.607216 527.32214 135.82857
-34.295998 527.98999 135.98999
-38.09967 528.04004 135.21001
-37.833199 528.15198 135.16599
-36.293331 528.11169 135.60834
-35.097252 528.54749 135.8425
-34.649727 528.22729 135.92908
-11.243688 528.15375 135.66
-10.495556 528.25146 135.55139
-9.4336929 528.28418 135.59908
-8.491334 528.5155 135.59431
-7.5973334 528.67004 135.28368
-6.6387672 528.85419 135.03418
-37.062 529.97998 135.06999
-36.823334 529.57666 135.18501
-35.561298 529.35596 135.61101
-33.772335 529.72333 135.94
-7.381289 529.28522 135.62405
-6.6043639 529.61639 135.37282
-5.9949002 529.92999 135.17
-37.125999 530.09998 135.03
-36.175831 530.55829 135.26668
-35.966 530.41998 135.3
-34.394844 530.43536 135.74155
-33.597748 530.35498 135.88499
-32.812 530.40668 135.98665
-7.0099001 530.04004 135.93001
-6.4836946 530.31006 135.60735
-5.8392496 530.17499 135.0975
-35.150333 531.88666 135.32333
-34.02 531.93005 135.56001
-33.6731 531.55402 135.66301
-35.031502 532.11499 135.25
-34.436798 532.77203 135.26199
-32.455006 532.58142 135.81357
-34.790367 533.84088 135.27002
-33.156498 533.58002 135.53
-32.901501 533.25 135.62
-31.7995 533.95001 135.85999
-36.394127 534.82086 135.53749
-35.503025 534.46356 135.56236
-34.559433 534.46881 135.58913
-33.404572 534.935 135.53856
-32.575871 534.69128 135.65668
-31.691 534.09998 135.81201
-37.388039 535.38849 135.48259
-36.800873 535.10876 135.2225
-34.242722 535.09631 135.14636
-33.79908 535.0708 135.29831
-2.3561623 535.6767 135.18709
-1.4939839 535.54388 135.23489
-0.75872815 535.56561 135.17876
-38.208 536.96002 135.91501
-4.3647385 536.74884 135.37193
-3.4941344 536.33459 135.44855
-2.5691085 536.13483 135.62303
-1.4494059 536.19818 135.7341
-0.51184964 536.36841 135.53537
0.26105466 536.56329 135.05777
-39.12225 537.85999 135.67001
-38.549252 537.45819 135.51035
-6.0594335 537.91998 135.77
-5.4675622 537.4574 135.63353
-4.8646698 537.07007 135.222
-0.36883956 537.41638 135.73364
0.20331684 537.27429 135.31287
-40.196602 538.83197 135.866
-39.582798 538.44135 135.43071
-6.4942379 538.5379 135.50069
-5.9645004 538.06506 135.23001
-0.090165481 538.08997 135.86002
0.064858004 538.09497 135.565
-40.464722 539.37225 135.37445
-7.2405005 539.76001 135.245
-6.9553747 539.16754 135.50749
-41.087002 540.21997 135.005
-40.950996 540.06494 135.04999
0.117066 541.96667 135.72334
1.7183468 541.94946 135.44292
2.5449207 541.94769 135.50647
3.4139636 541.87817 135.29498
4.4600668 541.9267 135.14534
-43.148499 542.90002 135.21001
-42.936249 542.4325 135.5275
0.62261271 542.10205 135.59607
1.4060969 542.05383 135.68851
2.3917785 542.01715 135.81929
3.5528214 542.14966 135.74533
4.5173664 542.49908 135.58093
5.3408923 542.56763 135.24121
-43.518127 543.42877 135.30374
4.9673004 543.28003 135.98999
5.503644 543.3952 135.57957
6.1563287 543.4986 135.19427
5.6279998 544.01501 135.75
5.8030772 548.66626 135.4446
6.5153427 548.66193 135.3847
7.5172935 548.56793 135.42706
8.5355587 548.53113 135.54256
9.48979 548.57922 135.54745
10.434833 548.71368 135.28802
11.13 548.85333 135.02
10.614125 549.17444 135.70312
11.424225 549.56256 135.47549
12.1095 549.815 135.08499
11.555715 550.21002 135.84715
12.108334 550.23663 135.28
-38.371002 516.36847 136.02695
-37.634785 516.33502 136.04715
-36.434196 516.68927 136.46234
-35.702503 516.38007 136.56276
-37.523708 517.21112 136.14119
-35.224442 517.36774 136.03445
-34.578663 517.36267 136.02135
-20.421999 517.68811 136.05064
-19.472698 517.64172 136.21933
-18.696636 517.56006 136.04272
-41.281998 518.91504 136.20499
-35.342693 518.66223 136.13461
-34.514683 518.87952 136.04686
-33.498951 518.79572 136.04738
-32.861801 518.78601 136.034
-21.313948 518.76837 136.35686
-20.514603 518.40051 136.51631
-19.507143 518.30957 136.61639
-18.554255 518.55664 136.47699
-17.799286 518.84857 136.12285
-41.111 519.03796 136.168
-39.21825 519.435 136
-38.535999 519.35815 136.00636
-35.119499 519.98505 136.21999
-34.528564 519.94684 136.21811
-22.196573 519.70477 136.40813
-21.604059 519.28052 136.67027
-18.346823 519.23883 136.82353
-17.672417 519.56537 136.4325
-38.222553 520.80444 136.05333
-37.490005 520.72394 136.05779
-36.657581 520.74164 136.0325
-35.526802 520.13129 136.18532
-34.372665 520.09332 136.17
-33.511948 520.23151 136.10632
-32.487946 520.12738 136.11316
-31.607071 520.26215 136.05
-28.757626 520.85876 136.17625
-23.105635 520.85907 136.46454
-22.70657 520.37195 136.42046
-17.303329 520.46808 136.61855
-37.108604 521.90802 136.07201
-36.484943 521.87555 136.06503
-35.504719 521.78888 136.0661
-34.476273 521.17053 136.22665
-33.477947 521.1189 136.21735
-32.505505 521.37225 136.11555
-31.500893 521.26111 136.12526
-30.609358 521.43073 136.05142
-29.48509 521.4682 136.01183
-28.478333 521.13666 136.08333
-23.429438 521.44122 136.61186
-17.079502 521.125 136.75
-16.923571 521.48004 136.37428
-37.392601 522.04407 136.03801
-35.319454 522.90637 136.20453
-34.506001 522.61835 136.27165
-33.500328 522.28723 136.34612
-32.497101 522.25262 136.33002
-31.511223 522.43445 136.25111
-30.505108 522.38263 136.24158
-29.490526 522.6095 136.14894
-28.493998 522.71503 136.09166
-27.692335 522.93585 136.00584
-24.041 522.88995 136.71001
-23.825636 522.35907 136.38362
-16.7283 522.68298 136.463
-15.4345 522.86499 136.27364
-14.503698 522.74921 136.49802
-13.582535 522.79895 136.31215
-12.954 522.94 136.09999
-37.19257 523.68427 136.02002
-36.491943 523.23352 136.13763
-35.819572 523.0343 136.18143
-33.241222 523.91772 136.32332
-32.498276 523.83551 136.32944
-31.851835 523.95001 136.27667
-30.263 523.95996 136.23201
-29.499275 523.89111 136.23555
-28.760668 523.87451 136.22333
-24.234873 523.47375 136.62875
-16.368626 523.22827 136.60355
-15.527001 523.13153 136.80347
-14.523214 523.0307 136.98141
-13.440666 523.22333 136.76334
-12.713035 523.5365 136.38287
-35.243874 524.60382 136.16623
-34.51989 524.47943 136.1861
-33.750889 524.12555 136.27333
-31.341154 524.06689 136.23
-30.578926 524.04071 136.2169
-28.256897 524.14099 136.12801
-27.492111 524.15942 136.10611
-26.707184 524.35364 136.02545
-25.692501 524.35498 136
-24.392 524.22998 136.87
-12.227955 524.34906 136.59001
-11.803429 524.59998 136.21571
-36.068501 525.20996 136.005
-35.829502 525.18506 136.01001
-34.1264 525.92999 136.21201
-33.478355 525.89471 136.2047
-32.495174 525.53418 136.28941
-31.503609 525.15668 136.37613
-30.502893 525.39209 136.28107
-29.485666 525.41284 136.25
-28.486498 525.27832 136.26447
-27.497169 525.31891 136.22665
-26.516611 525.55719 136.13055
-25.505104 525.76263 136.04369
-24.786144 525.6972 136.0443
-11.753999 525.29285 136.6543
-35.018002 526.66998 136.01001
-34.678726 526.56451 136.03275
-33.241669 526.78326 136.26001
-32.511059 526.90393 136.27278
-31.516768 526.56946 136.34766
-30.520668 526.17834 136.43887
-29.510418 526.37744 136.35367
-28.487556 526.39111 136.32387
-27.480721 526.19775 136.35667
-26.491554 526.35718 136.28334
-25.500891 526.50775 136.21498
-24.866001 526.56604 136.17799
-34.125999 527.63251 136.095
-33.668499 527.4892 136.12498
-30.251398 527.84998 136.43901
-29.56093 527.68927 136.55431
-28.509111 527.64056 136.43054
-27.509943 527.68726 136.39223
-26.499556 527.56226 136.40277
-25.49778 527.59998 136.3661
-24.965 527.54004 136.37001
-33.064499 528.92499 136.16
-32.507526 528.58411 136.24823
-31.50222 528.21558 136.33389
