ply
format ascii 1.0
comment PCL generated
element vertex 1557
property float x
property float y
property float z
element camera 0
property float view_px
property float view_py
property float view_pz
property float x_axisx
property float x_axisy
property float x_axisz
property float y_axisx
property float y_axisy
property float y_axisz
property float z_axisx
property float z_axisy
property float z_axisz
property float focal
property float scalex
property float scaley
property float centerx
property float centery
property int viewportx
property int viewporty
property float k1
property float k2
end_header
-31.531506 511.45975 202.9959
9.5735025 529.45593 220.71992
-38.273567 566.20862 243.45169
0.60179234 511.88895 143.75273
1.2568445 554.44836 234.63257
-15.419386 520.091 227.27557
6.0418348 499.49466 246.90569
-55.401821 527.95459 167.25754
-30.04837 517.95282 117.38367
-11.760333 504.83716 235.19601
12.228377 514.84485 234.11633
-44.449066 553.1955 178.17006
-49.500061 551.85773 252.1994
-15.737086 502.19876 144.74367
7.7080145 500.91357 244.17982
17.249626 535.1463 188.27196
-4.0624609 507.20145 121.06232
-26.15184 555.86377 226.83577
-41.733189 522.30859 115.20477
-41.49297 557.84045 202.18649
16.168156 527.64923 207.32175
8.4446402 541.99951 229.17548
17.444736 532.04425 201.89288
4.6504812 539.89984 250.00334
-41.744495 510.51608 179.0295
-1.6420641 535.67194 115.31564
-38.586273 539.07697 129.11615
6.3371325 510.87518 196.60599
-45.270737 539.54126 157.41054
-22.373842 504.64011 146.23672
-42.859253 526.95013 113.99547
-31.417488 538.78101 226.59241
12.113952 508.23932 235.44594
-9.7857437 559.09698 230.81927
-23.536808 509.39691 255.90521
-34.4725 547.724 137.37738
4.5857038 535.67651 114.02451
-44.105873 536.95599 208.8567
11.94173 538.57697 201.38821
-40.037884 527.63458 238.10156
-38.414909 535.2887 219.73285
-33.549141 507.80328 121.29335
-56.260864 538.77515 184.83353
-7.532937 533.11554 256.00394
-55.382275 525.54443 179.71652
-34.167057 520.48035 239.97435
-31.477001 537.95441 256.29749
-29.096159 523.60321 219.00171
-18.371962 497.81003 140.48605
-24.15987 548.06299 127.2525
-54.598389 539.58588 239.8837
-37.930283 526.20612 120.87589
-15.924981 500.06461 183.99989
-0.41874981 507.47076 193.74722
9.1377325 537.02112 223.4248
-36.736275 526.1723 212.38251
12.354913 513.55139 163.11487
-42.146667 542.94556 210.08945
-37.692055 547.23846 215.29532
-36.825729 556.68799 256.55621
-38.450005 516.54492 203.53917
4.0775595 521.57019 255.76096
-41.341198 541.591 152.01947
-42.05891 511.78668 141.94962
-21.629301 558.73285 213.3531
5.8364611 530.67828 234.10548
-26.383659 551.94568 234.60214
10.401345 504.85559 246.95592
17.714691 529.75671 248.72183
-3.2155714 524.52142 232.7952
-54.027988 523.08234 180.42197
-2.5989189 552.95563 170.3667
5.3638945 517.68658 209.41632
1.1169729 551.05975 170.21674
-31.637913 558.74445 239.95938
-11.644489 555.72113 177.06598
6.9823027 543.30768 212.68237
-51.253822 530.00427 246.34944
-36.803478 524.22559 235.26993
-44.158382 549.62537 171.27121
19.413673 529.82532 255.69719
-15.132643 533.77716 256.08755
-12.756895 559.34882 246.90889
-33.831757 529.42096 229.19095
-48.877499 552.24011 194.30801
-32.057144 514.45032 204.63298
8.9371538 528.48224 220.71402
-2.9426479 504.20306 186.69647
-1.3683805 554.21326 224.8013
-14.61255 510.17178 120.90967
8.6855707 538.92432 107.6394
-29.06073 550.9892 137.48611
-11.727015 555.50745 159.17241
18.988697 516.07043 243.49869
-28.617893 502.85132 181.89771
5.3045702 511.29544 134.00897
3.1442461 558.42401 250.04291
-9.2667427 498.9288 245.27303
-16.248457 507.42407 151.3269
-0.0097646713 551.8161 166.25792
-32.152744 520.98907 116.16299
-3.2678518 508.67383 204.51559
-21.84848 517.43042 230.71861
-19.879826 516.23083 116.15747
-39.607151 523.11823 208.1636
-56.186283 542.45911 241.703
-15.338155 539.39771 116.9845
-1.0239401 520.82568 233.71008
-42.856773 529.13367 237.78928
-28.348154 561.5946 256.52472
-23.368898 515.93835 214.93449
17.302696 517.32037 170.62231
-15.462212 559.20917 222.42731
-23.068287 556.4447 161.52324
1.255353 511.55231 206.43111
-14.34761 531.41168 256.05377
-13.208328 525.6156 255.97891
-35.300297 531.11151 256.26102
-17.759167 559.13574 220.7379
-7.1198692 559.37299 256.06619
-43.603432 538.66272 111.02602
-54.86515 527.96234 164.73853
-0.6149931 512.12646 142.99866
-38.667236 508.14142 178.27542
1.9613008 514.38434 233.45839
-54.505722 523.22577 170.94362
-40.667576 520.06665 201.13213
-5.8930473 556.60669 222.78972
-16.240658 504.41925 244.97008
-48.439674 539.61212 236.85609
-54.476101 532.98907 189.65286
16.660149 534.85144 190.93094
13.454741 515.25433 198.22464
-14.633924 526.65479 256.00461
-35.162689 548.8537 145.40738
-30.597977 556.01617 168.30853
-12.178547 500.55066 246.19728
21.411514 519.21765 247.77763
-21.645071 555.54474 238.97072
-19.548723 554.82422 147.39209
3.5921679 517.41168 112.75694
-1.8297358 490.31863 255.3951
-31.136967 556.7005 179.02704
6.1103811 527.47931 228.26469
-55.658009 536.78796 189.33597
-24.645166 557.56671 179.05695
-17.062696 500.52405 140.94287
-21.755116 519.07782 115.10495
-32.939632 544.33142 127.42285
2.0211039 561.27032 254.38591
-19.218834 507.98203 151.58801
-38.246769 520.78632 153.61459
-43.130985 530.9884 113.59976
-18.029781 512.15985 118.88098
0.70847225 510.31006 202.25293
-10.552202 516.96875 116.85361
-33.840034 555.61639 176.01144
-9.9363089 535.3125 116.21242
13.147082 509.2482 185.14665
-30.446621 528.24915 256.18094
4.8308172 535.01788 134.93781
-16.205719 502.01129 145.08542
-46.804489 535.15442 199.73611
-55.26899 532.84009 187.85321
-5.8388996 505.0647 195.62297
19.328289 525.67035 171.35596
4.1271582 548.20264 181.26161
-38.645481 519.86658 247.38033
-20.105247 502.65591 133.61049
-35.452446 562.43933 240.6797
-32.939568 541.9231 256.35559
5.7051134 546.42719 220.47144
-6.2335711 561.20758 247.97987
-1.1298313 512.52594 233.79926
9.1605234 532.0238 242.51491
-15.982775 553.70673 256.31415
-26.536274 516.48962 117.21692
-8.839632 513.35077 217.25427
-49.629879 551.78497 248.04323
-47.810181 554.09717 253.36945
-28.158876 523.56616 230.45938
5.8801241 557.27814 252.40874
5.0542307 539.71429 250.41093
-5.7567701 501.53171 239.68011
0.82138538 519.15088 255.7672
2.9439211 551.72797 230.39597
-3.9286776 557.80768 234.89085
-51.550983 549.07678 236.80286
-3.3678141 553.16113 174.1575
-48.476307 516.34882 165.9743
-14.55583 507.52533 132.0098
0.25376606 536.61267 255.96397
-22.55171 560.37921 251.26628
-37.158642 513.2962 125.01501
5.3036757 523.48395 224.90302
-31.040325 508.2663 147.80579
3.741437 513.29492 233.41743
-4.0409222 555.45459 221.56778
-5.7646685 524.78857 115.6982
19.616489 524.71399 185.50908
-38.486935 523.18964 119.34442
-48.65398 518.42743 183.74048
-28.769226 521.5719 238.1852
-42.706505 534.47638 113.81573
11.945712 539.40625 168.84427
-14.073635 507.69522 131.28568
-34.139687 520.98175 237.98027
4.3683405 516.68176 140.6519
-39.046295 535.9873 127.20714
-33.574051 516.31616 246.88991
-42.504135 525.04083 142.26413
3.0617495 519.87177 147.00711
-18.493145 523.37286 234.45898
6.5791979 545.9975 179.40981
-4.1481123 553.18768 197.64268
4.7235308 496.64941 254.7661
-16.126608 522.08691 255.96962
-37.921318 521.71631 207.48752
-41.652302 539.37024 213.40819
-31.999844 509.91803 146.54965
-0.82683086 554.40314 256.16949
-13.279769 530.5014 113.92116
-40.367054 527.54004 256.27286
-37.169762 568.01654 248.91032
-2.1073132 498.0798 255.56607
4.907752 530.70941 114.34521
2.8632536 520.12213 233.94308
-2.8893337 504.58096 187.79771
1.7309294 550.26404 214.6568
-48.778572 540.32068 161.07112
-41.283455 536.59216 135.21277
8.7754354 502.366 243.37027
-11.363997 501.68399 167.30611
-39.047432 542.68823 140.88647
-0.1516304 510.38983 159.7883
12.814752 510.26703 171.37259
17.000198 523.01337 198.3768
11.37914 532.46527 245.10205
-58.60873 539.54407 255.82581
-2.5707188 510.56549 125.66795
-44.830326 554.31207 181.96292
-4.806118 553.26392 188.87222
-4.9115038 505.93314 201.41943
-17.400381 559.11774 231.67905
-60.29739 536.20673 248.86218
-47.34795 538.74615 256.46561
-36.511642 524.97028 256.20599
4.2811499 548.2392 219.80603
-3.9773235 515.17139 217.78749
3.43859 515.55145 212.94615
-17.457703 521.67749 114.13916
17.726368 530.81238 252.38913
-49.319103 542.91406 163.85133
-15.947655 549.16504 256.2641
-45.489197 528.09637 239.40569
-44.74762 514.17859 166.36949
-38.106647 528.62866 120.58801
-4.216033 492.21991 252.34398
-16.320234 556.80768 246.18864
-43.642227 525.18207 156.01947
-20.229351 524.92627 234.44505
-56.10368 537.15253 173.51846
-38.31852 513.21185 126.21094
5.0869036 522.85785 235.01155
-20.704475 512.70312 118.51111
-3.6517372 506.07593 163.80161
-13.882312 537.47034 256.11539
-48.339355 553.43323 251.47443
6.2076178 512.63654 142.36707
1.8094225 514.58606 255.70732
-39.89677 533.41205 256.33237
-35.17672 505.87799 179.95657
-6.0231419 510.16513 134.08578
9.3303537 540.0426 240.48174
7.5141325 528.39471 238.43063
-50.896202 539.6402 237.72415
-34.008919 538.29596 233.43764
0.49040508 551.54126 216.04016
5.4675493 533.19666 139.05173
-23.317638 542.92682 120.132
-26.813416 546.43652 256.34344
-34.784054 567.8941 256.65833
10.61147 504.64014 251.15108
-10.903973 502.05682 186.75792
-8.1062546 503.34589 167.28024
-9.2035503 510.21127 209.5154
-17.243118 509.50662 234.44072
-27.655487 563.44794 253.1723
-49.71497 543.76105 165.2438
12.594342 529.39777 216.34369
-10.624063 508.79407 255.76888
17.767651 516.74481 181.1051
-1.0471697 504.25632 175.69247
-22.339149 506.34372 131.63718
-0.18824959 551.53119 176.39479
6.1974154 546.37958 162.99197
14.754266 529.19128 212.6283
-4.9048328 546.2088 129.38754
-45.982338 540.83618 256.47476
5.6377935 549.35699 233.16605
-28.487873 531.26001 256.19418
-0.97479439 536.83923 122.70764
16.456936 533.79645 200.97377
-10.391191 502.04391 242.42842
-3.9509916 508.74182 235.21167
-54.161247 535.02405 256.49335
16.136032 529.99194 210.61246
-18.281401 523.91559 229.74458
-3.6664648 491.55511 254.54019
-39.048859 522.6933 150.10938
-19.238848 557.32605 249.50484
-17.738508 528.67157 233.82703
17.125011 517.77875 192.4063
-22.119349 528.18848 234.18094
-33.208054 566.57312 256.62802
-4.9094563 560.79224 246.2813
-43.487457 533.73627 256.37201
-20.431988 558.81268 211.63367
7.0945425 508.43533 192.82309
-29.959652 552.95587 224.89455
-8.4318237 552.25189 256.22238
-28.57847 503.21619 178.96574
-3.7316961 553.36078 256.18729
6.1767683 529.75574 231.71875
-34.499882 553.65106 215.55118
-14.001343 501.13519 248.93829
-42.14782 556.23828 186.39117
1.1206942 544.15417 138.04205
-35.888988 556.73657 237.03581
-30.353973 512.10419 256.00333
-44.391609 539.01062 109.09076
-50.550259 518.86395 176.9017
-52.395061 548.10876 246.60966
-26.994211 553.78241 238.84351
-44.106129 556.33472 192.05713
1.8577223 549.29584 190.20305
-39.948727 545.76874 256.46811
-30.889606 530.79712 223.02217
4.6239939 505.60114 175.80011
5.0391073 497.90036 251.89981
-9.4625149 517.28314 116.96075
2.4072142 549.84662 177.99072
-16.493324 553.31018 139.63242
-16.62504 505.44785 202.41026
-18.216427 504.55176 128.09422
-40.601162 515.5174 194.19235
-34.78286 549.42676 146.74234
-32.914051 554.71136 162.74094
5.2557573 498.17844 238.70383
-41.230515 532.3396 131.0918
-15.683016 555.06213 250.47
-36.028568 558.94543 193.55847
-38.119843 529.8941 233.20865
-7.0491943 494.97351 255.58173
-28.800385 559.70056 242.5528
-11.422522 526.75677 114.19609
-21.465162 559.47443 250.91245
-5.3891916 508.12292 202.39673
10.735763 524.93634 156.10938
-4.6941462 502.97876 183.48866
15.469169 511.9017 246.80301
-31.287975 508.67352 194.12025
5.8451509 499.00708 237.98776
-14.079522 507.48666 151.65317
-44.240555 531.76569 207.74493
-23.345917 517.0426 218.01492
-38.381931 521.89362 242.34317
-53.647865 527.26843 162.02969
-58.541885 538.97412 243.47375
-36.87133 506.63199 180.88795
-24.419228 502.14551 177.35184
7.527997 542.23267 211.4547
-31.25421 521.50061 116.45082
-12.208256 555.8634 166.64334
4.5747747 518.37549 139.69708
-20.842857 538.40509 256.19556
-8.1596546 559.40839 254.90294
9.1247854 502.96677 239.04001
-38.763821 523.84009 256.21625
-44.93169 535.05237 107.76222
-40.084782 529.34326 210.52708
-6.7771206 537.84204 256.04807
-53.687466 541.71002 192.90936
-18.408287 554.14227 143.12921
-58.741684 533.32904 251.37502
-7.0118666 557.7063 227.34361
-43.907185 528.07556 241.97621
-11.18705 556.60315 200.9915
-47.216469 524.29352 256.30615
6.0624685 538.78979 152.13174
-0.36633205 504.75873 174.44659
6.0011053 544.66919 203.75182
-34.009445 518.86328 115.59378
15.148948 523.96338 255.6759
-49.555241 516.92505 170.86465
-32.826649 510.1431 196.11514
-42.752319 523.80609 256.25595
-55.939842 530.65631 253.94247
-19.481535 558.89197 213.48981
-3.0983706 552.55237 154.79572
-19.987537 556.99799 171.95499
-17.525806 515.82098 230.11766
-2.526927 524.83398 234.09593
1.603406 493.46045 243.61983
-51.849957 542.59918 166.7063
-40.569885 556.53766 186.44241
13.879476 532.15021 255.77824
-54.545696 545.09802 251.69891
-13.763668 559.57343 242.52962
-3.7693825 502.49973 255.63113
-35.281998 527.5141 217.74524
-27.520184 532.82202 115.56197
6.8675127 545.30249 225.02724
-4.4938021 520.80377 115.51433
14.5335 519.53711 202.71654
10.853845 517.20331 234.81303
-6.5242405 508.99628 205.13794
-44.787266 515.77875 186.52386
15.976569 531.83295 253.20035
-31.762451 556.51819 179.22781
-37.338448 529.28534 232.22087
17.983368 515.60376 239.09779
19.355568 532.56061 176.1163
1.8556433 556.67761 243.13864
-49.469711 540.75848 200.23039
-10.183145 509.80676 136.04785
17.276299 533.21747 196.44743
-25.119013 547.11176 256.3338
-49.384758 549.32465 197.9044
14.39881 536.47198 164.01578
-5.8545132 558.02911 231.93062
-41.291496 518.75873 115.32143
17.037434 513.84485 237.78693
13.657231 533.89447 217.26309
-4.9866486 519.21967 116.03163
-21.693121 502.52753 142.45554
-47.673286 551.07263 199.98262
-14.881124 507.83972 135.19266
-3.6435337 496.0368 243.41823
20.491055 517.85223 253.10103
16.97131 524.08826 201.8895
-22.846958 513.15796 240.89665
-42.225994 522.94238 136.11316
-9.9632444 557.22827 212.9142
-3.3607769 555.93549 227.50853
-40.493874 522.94843 147.5029
-8.8977299 504.06833 124.04297
-39.262737 541.83942 137.08789
-28.225306 508.12152 198.76434
2.3677034 511.63132 143.63574
6.0040789 506.95731 188.03378
-22.81385 510.81229 243.18748
-43.093948 545.48102 159.3141
-21.312918 516.80719 230.7439
-36.01469 542.47449 128.78094
-45.27573 541.72839 204.85449
-10.794449 511.37305 211.39067
-20.136395 558.00684 190.82306
5.7767096 545.53589 215.172
-44.242973 528.40063 111.95209
1.5538797 543.62665 138.35898
-23.417616 547.05499 125.33963
-18.618086 501.56195 182.80249
-41.484863 539.69672 151.27246
-37.659096 545.15088 142.11818
-43.49828 511.46051 143.22188
-45.247795 514.28729 176.10243
-24.919781 514.7182 235.26143
-36.846409 536.44006 123.606
-45.902374 527.49304 244.22232
-32.239624 506.15921 186.83849
-37.072922 529.89618 231.95801
-2.6431665 542.22437 256.05447
17.475346 521.19446 255.62224
0.63831997 534.99304 118.56584
15.063453 511.89423 183.28824
14.197108 538.20154 186.056
-42.915966 542.13379 207.69746
4.5399771 547.07562 189.28311
-0.89192867 537.79102 255.98839
-42.499939 525.1795 203.15512
-8.4267788 518.92029 226.5574
-16.536736 518.38361 221.27702
-42.967999 560.58252 253.92291
10.076304 539.47418 160.69675
-55.296204 538.00128 188.53979
-29.063263 563.8562 247.94249
-47.589161 537.42181 158.57732
-11.846549 514.98889 228.54758
-39.908543 525.42792 256.24512
-3.4962721 521.27069 226.64795
-31.029621 543.00043 123.8998
-21.880285 506.91696 247.98502
-4.8239355 553.8559 256.20367
18.612656 529.44519 191.70119
18.055325 515.8324 247.54443
-43.864204 549.60028 234.27859
6.5727682 526.25977 111.62379
-5.1765614 557.6181 256.24838
8.2226076 534.8775 232.06236
-40.651199 535.89355 215.67752
10.226377 534.50653 247.01454
1.3675966 515.68835 149.20486
-17.705853 502.67813 255.77312
-36.344631 539.96283 125.95412
-30.597195 530.98981 115.94389
-20.847973 515.42468 215.18448
18.65263 527.45013 190.35527
-30.729513 551.70959 143.28729
-15.489061 500.41446 254.006
4.1736975 511.56378 134.63348
-50.506153 549.87787 194.52171
-53.387127 536.21185 193.30298
2.6459475 507.30429 190.7484
8.5533552 506.58762 187.94478
-36.831734 517.36176 124.93954
-36.687859 560.23853 198.23759
18.917561 531.64453 182.7366
18.492409 515.65039 240.29556
-22.410044 558.39746 196.51013
-15.299565 510.54022 232.36122
-15.863507 540.99847 256.17392
9.4380732 542.57434 166.19495
-7.554637 507.60077 233.46671
-13.135637 505.37839 129.59744
-37.306129 532.91028 121.45697
15.540195 515.22742 191.07913
-27.170139 518.10437 215.49879
-54.089417 522.64447 168.03354
-6.5429878 512.35278 230.64273
-24.521416 555.06207 241.12318
-24.226902 516.71747 255.99225
-38.262482 529.83142 235.26964
-1.9022894 551.78674 188.65799
12.02806 538.08771 163.67981
2.0727987 524.21973 125.45116
-1.2753878 522.99481 113.64862
6.3680983 509.4035 233.42815
16.223904 529.9043 207.67505
-36.223492 553.86121 256.51923
-36.987167 531.99835 217.30496
-13.674256 544.00262 121.19603
-41.523506 517.34955 113.62303
3.4022322 534.08374 115.88309
-24.367695 557.396 176.31734
12.392882 531.61017 157.9223
-52.270828 548.25067 247.62611
-23.029606 557.12329 171.88394
-39.715137 518.8313 203.67288
5.0664854 546.13849 256.01987
-7.3600578 556.45422 215.8358
-60.120773 537.27521 256.29004
-52.252121 535.49536 194.49904
-27.63023 510.73401 130.98819
-7.8929067 524.86853 115.19478
16.336563 512.52216 243.03931
6.0615377 505.66888 181.82016
-38.649029 543.50079 141.67824
-39.772232 546.76013 210.7841
4.0198545 536.62274 132.952
-32.19978 551.18182 145.09547
6.6740522 545.22003 185.51274
0.90009212 551.60815 219.19556
17.192005 534.1402 188.44711
-52.688343 547.84918 185.11247
-47.10865 521.20026 158.98636
15.912147 529.2179 255.72574
7.3233747 545.55145 173.21663
3.1271048 511.47903 129.47758
-10.171089 508.97726 231.4344
-21.496613 534.76935 256.16235
8.264699 535.38977 233.1347
-8.425765 530.23077 255.98135
1.4897032 549.46075 194.67868
4.6302729 535.38275 134.30945
-5.3441133 512.30981 139.98927
17.603989 516.25977 186.80341
-38.267406 507.71564 172.26991
-19.258183 549.50989 128.91631
-23.610483 553.98499 237.57021
-7.1133041 554.59705 159.32202
9.7796412 542.28107 170.82602
-8.9112644 502.13715 187.42419
-22.407766 558.74945 213.83414
-17.127163 559.07678 218.85217
22.845356 522.5788 243.98766
-34.07309 561.81201 204.22372
-32.532848 512.41705 141.85538
16.266727 512.93268 244.40494
-16.5711 500.41412 181.40674
-14.863789 557.09357 192.52872
-40.484123 519.99585 146.76608
-30.271553 564.11115 246.82185
-28.340454 513.90973 239.77188
6.4959021 544.30176 195.85167
-32.255947 530.50745 221.49902
-36.899513 528.64691 214.83458
16.123783 535.25073 196.91183
-27.156784 522.1145 256.08075
-18.053085 531.9505 256.09689
-8.4610176 520.23981 225.77559
-33.545696 528.37677 221.32607
-7.0484705 554.69653 162.8157
-34.892662 559.23987 212.99774
-1.7225256 511.80344 123.61919
17.569889 521.66925 238.76765
-39.720924 565.04291 249.73192
20.477592 528.71234 252.08156
-13.687198 555.40344 154.72617
-8.8597279 504.77591 123.23306
-25.726677 517.30017 116.61903
-32.219742 524.40344 238.09753
-15.212533 506.74039 135.37567
-25.805824 512.94257 236.24248
-23.681168 557.08093 171.35356
-18.355122 511.83914 239.24199
-7.7055936 508.34686 145.70621
-1.4188747 524.30383 234.23973
-32.302734 505.83896 164.84692
-25.986105 509.03821 132.54132
-37.491547 554.68512 182.89151
-42.614777 536.39886 256.39236
12.092864 540.22528 178.72766
-43.507511 521.43005 253.42471
-1.7793465 552.04425 203.15598
0.24619389 536.26135 123.89409
-35.547119 511.46252 116.89279
-59.201313 535.27484 250.34906
10.179908 538.95544 205.84821
-41.557343 524.91522 131.94342
-35.956821 564.53363 242.18846
-23.516346 558.20618 191.57072
-11.647099 510.79053 211.42091
2.9963961 550.44879 224.49178
-28.961184 522.3197 231.82208
-46.810577 555.41278 254.43474
-14.477412 507.21539 240.49976
-0.40298557 513.2832 124.27158
-21.935677 501.43439 174.16537
-11.199343 501.76767 168.04715
-13.360535 508.26862 130.62772
-19.97473 498.36789 142.49933
-0.24594593 513.00946 115.32227
-0.7298193 504.82599 235.67461
-56.559586 537.16412 178.17087
7.4907522 528.78491 154.05598
-3.0267639 512.88898 214.50317
2.8136339 512.86292 148.49255
-21.065536 556.76086 165.62247
-35.868176 525.95178 232.18654
-51.213398 540.14343 237.59976
-28.642555 504.22778 168.71588
-28.287687 529.53876 115.0571
1.3671293 503.88678 255.5947
-15.358791 559.12384 240.71808
17.430912 515.90112 179.90204
3.5723925 511.6196 129.0029
-35.001656 508.20349 192.80864
5.8777094 547.02802 164.90279
-27.567768 509.92078 131.54816
-0.5732832 549.26971 150.13931
-21.908875 533.74707 114.24716
-32.883179 563.54224 243.4772
-18.094999 501.85571 134.48572
-22.562195 507.59814 151.30579
-55.083569 535.16779 190.53012
-23.014175 502.73828 185.23654
-44.069298 531.3028 108.61366
-41.707859 534.54932 143.01587
-10.113196 504.61444 255.71802
-29.119213 557.5498 189.86743
-50.864773 548.2113 194.6058
14.387347 525.24774 209.71198
-47.173519 548.39691 203.10367
18.760536 520.8432 238.7874
-40.348701 537.24017 214.60684
-23.936993 503.17996 186.23853
-41.603405 557.61584 189.2178
-16.851637 558.22906 202.76932
-14.155224 504.79688 199.10493
-43.732506 536.65533 154.01929
-37.528488 535.53259 118.86064
-35.11763 542.80963 127.93445
-54.788761 540.2229 239.96153
10.899703 508.34073 188.74896
-7.8141861 507.80295 202.84081
1.1368303 534.70557 112.35353
3.5432768 524.7666 128.71503
-33.242764 558.87903 195.91832
-34.311172 507.70001 192.15988
-8.2398996 547.2077 256.16525
18.446854 530.93451 188.33084
-17.41361 556.95599 178.83739
2.7502832 512.47235 202.50954
-44.451382 547.01154 234.36966
-42.25161 560.3573 256.65088
-29.281517 515.18188 243.8306
-37.936619 540.86957 256.39429
-29.435186 503.67935 171.22217
-32.52396 504.71646 178.74959
10.18901 532.91766 157.13565
-22.552208 511.10608 120.07793
-11.695335 509.2626 134.64795
-37.706947 512.67352 118.27728
-45.871349 528.52698 237.16254
-12.293646 505.96967 237.9622
12.488584 510.17673 170.84131
14.140651 522.50183 206.89439
-42.04818 548.7774 164.17947
-47.535046 517.56781 177.19014
-46.547657 528.55591 200.33554
12.479676 538.48615 217.83359
-19.690807 557.91168 190.40013
-34.615322 560.78223 199.32742
-11.642122 556.62341 199.21858
-18.829712 531.08307 113.47922
-2.1554461 552.80682 169.50638
7.4462996 523.49176 255.74814
-39.381332 510.52069 165.50266
12.814952 519.96307 158.51865
5.1174593 546.1012 194.23029
-40.386913 547.33502 156.82117
-11.936024 506.59894 157.53995
-22.831272 556.57135 232.35637
-2.4589329 554.36084 220.68478
-1.7184162 551.73779 187.31407
-8.3075781 554.83551 175.49991
-24.106354 526.13745 226.22124
-37.836643 517.83899 154.90314
-1.3591909 511.22693 151.74963
-42.935055 529.42041 153.79501
11.076949 507.23419 176.61847
-17.227219 559.02588 217.85164
5.6748323 552.7085 256.08563
-17.506876 556.8031 174.63373
-38.520149 546.04578 150.43024
0.26449966 550.37177 195.12245
-45.101345 526.41925 156.11877
-28.785259 542.02362 233.76338
-22.079872 512.00195 241.40047
-25.886906 504.69946 125.06818
0.63288593 550.92139 211.37939
5.0172091 538.28076 110.01387
-29.183054 502.90085 183.35251
-40.238564 544.98053 153.05371
-36.147453 538.09265 123.90929
-49.594971 528.58252 246.6073
-5.3395243 553.92212 199.48293
-36.978622 512.62708 143.87717
-35.698643 506.38333 176.87268
9.7220297 511.19513 196.83472
14.509107 526.61096 242.40337
-46.011211 549.78613 171.89885
-4.0898962 553.54327 158.21259
5.1844378 511.43668 132.52939
-48.428417 553.55194 241.72073
8.4505758 544.2204 169.82913
-19.520462 514.20508 255.91748
-21.940414 506.84637 135.52881
-18.350758 555.18677 150.12335
5.3467493 505.29291 177.76221
13.040799 521.92218 158.06537
-12.5144 502.18384 255.71555
-36.59771 558.82983 193.23572
19.100639 525.27191 169.99371
-48.354713 535.86029 199.40405
-13.842157 544.38831 256.1907
1.1322775 527.21332 121.79153
-33.094456 531.29352 221.00534
-9.3418646 555.86914 200.69197
-41.301006 562.77643 255.70082
-24.91468 514.47144 255.97459
-40.433544 536.26813 233.81024
-32.530823 504.34506 172.73047
-7.9212985 511.07092 131.12485
-33.386478 510.92441 197.59303
8.155961 547.06079 240.22531
2.9262762 550.83215 226.25275
8.7736559 519.93744 255.69591
-34.479229 525.1098 238.73146
18.863785 523.27545 242.33144
3.0948954 526.505 116.7171
3.8686113 512.25134 199.36369
-11.528325 518.12915 222.11034
-7.623908 518.35938 227.18384
-35.908489 516.13873 251.55832
-29.27355 541.15314 256.31033
5.2788897 513.83386 134.1879
-37.818993 557.62341 236.83293
-24.710438 508.94388 133.32953
-31.439283 561.02832 214.41318
-20.248098 501.90204 133.33153
8.8188887 539.09845 230.92038
16.226021 531.14215 249.5058
-29.682396 553.95776 152.06975
-8.2073727 517.27319 221.33324
-54.353966 544.58765 182.37741
4.0886488 526.72937 233.56888
-32.798237 512.8205 117.71135
-41.789692 532.54999 115.20044
-51.460567 549.43164 238.60782
-37.676548 531.41571 230.61119
-42.080967 545.72607 234.29869
7.0288401 535.47119 244.82419
17.674564 532.91382 167.23404
9.1996241 524.46796 236.85193
-43.653542 513.02039 142.04889
-31.175549 545.51349 234.57039
-56.503136 533.27814 172.59094
-27.665783 518.38843 116.65025
-21.206264 519.37128 220.54533
-27.84388 548.7384 130.52559
-44.949947 531.31421 155.47986
-32.083458 556.62793 217.70615
-9.6822262 542.57898 256.12909
-37.550217 512.0296 118.22621
-16.827148 510.4465 120.50348
-29.748016 560.55463 217.18196
-10.714666 505.89868 233.96362
6.148612 544.12982 253.02402
-42.670197 529.14197 206.21638
2.8359957 531.24023 126.44844
1.4450598 520.01074 221.99344
-54.783268 522.59491 176.64035
-14.363167 556.53674 183.78143
-53.003334 532.66327 191.86626
-54.59679 534.06171 190.66078
6.4563112 505.5831 179.60359
-58.157017 532.28265 254.18619
-52.523407 535.16278 161.88177
-24.945259 556.66626 226.23315
-49.319038 525.51654 255.73003
12.245017 510.38281 255.55649
-30.498371 519.12445 212.80338
2.3345594 524.90289 231.5127
-11.455589 503.06207 236.02704
16.89468 535.63452 186.95694
-22.60396 532.67273 256.15054
-33.067196 509.84601 195.17477
10.653398 533.53979 245.93721
-5.0024042 549.06006 135.66882
-0.57153988 534.0589 255.94432
-45.575237 543.09998 256.49542
-42.168854 523.70288 256.24896
-25.508869 532.92523 256.1825
-52.033646 533.25409 160.50659
3.7539778 555.20282 256.13223
0.47425747 507.74982 163.13037
-33.759617 528.96985 221.21024
-43.306156 510.7269 174.5804
-9.6449738 540.82495 256.10953
18.792664 530.47394 186.02975
-16.117603 501.0141 172.21152
-32.890068 566.78558 248.16229
5.1987581 519.64459 234.16972
-3.3185167 505.16522 190.41846
-41.198002 514.05438 191.32387
-8.6437244 523.45502 115.20644
10.815225 504.9855 248.2079
-36.699821 537.88043 220.17975
-26.25452 520.74957 221.98819
-8.6226931 501.60114 180.80396
1.812501 552.44891 228.89244
-18.029076 557.71155 191.35988
-4.0852833 505.11588 191.52545
-34.763191 518.85419 238.95848
-14.282849 551.72272 134.84164
-44.895248 528.69666 155.77829
0.38523006 519.06744 125.37308
15.765725 523.04712 203.38515
-34.117569 538.02606 230.41508
-12.586621 555.96838 178.36819
-0.67477703 535.18671 119.20872
-6.8351068 512.19751 214.69791
-30.561228 557.12915 192.44991
-52.175617 521.99976 181.94687
-18.458504 514.2052 236.77809
-47.467785 552.22607 198.63763
1.9821901 529.71375 111.37245
-10.807918 507.41779 122.84578
-13.844398 504.02982 163.20682
-40.772934 540.80096 256.42203
-45.946674 554.73315 196.51189
16.144512 529.45172 208.19037
-11.709131 529.5625 256.00702
-52.397846 522.95435 162.0979
-19.364819 558.99951 223.52795
-41.398537 517.57635 138.88351
-34.114613 534.4978 256.28616
-9.1171904 502.43738 192.90852
19.10741 516.08392 249.47018
-40.741272 532.91791 149.53766
-37.201321 539.69269 256.37402
-39.277111 563.10553 239.3177
-8.261631 554.99341 168.46411
-18.285452 556.72266 168.75603
18.592171 531.68219 168.70897
17.687187 519.5658 189.71185
-47.066093 549.61591 204.06743
-18.743317 501.48709 182.20465
-32.458824 509.67685 195.29047
-21.077602 505.77856 160.67838
-29.649067 505.60742 188.89624
-2.3499546 513.69672 213.57324
0.46524715 550.27301 199.06612
-3.8002472 512.77704 134.33057
13.813958 527.65869 255.72975
9.3068113 502.86633 252.0834
-39.267185 539.44788 131.41879
-6.9075308 543.16473 256.10764
-20.979834 558.20941 228.91753
-33.659367 552.69501 154.83023
-36.562283 507.2626 170.47296
-30.35729 553.87445 152.91818
1.2821684 518.93079 127.3884
-14.019989 516.86053 228.0141
13.060906 518.99884 159.12476
-11.058653 537.58667 256.08829
-1.6575985 509.83044 119.37079
4.5111609 526.32031 114.90262
-4.1670189 561.0249 247.93726
-44.193829 513.95978 182.53833
-0.72994709 518.90857 223.71674
-30.66724 561.10657 216.02414
6.1335764 544.67163 211.09639
3.50459 538.15283 133.16931
-31.235596 508.43497 125.34364
-15.247681 502.03757 131.37332
-7.8310385 506.68204 151.30029
2.2495127 510.2886 148.30771
12.172814 525.0246 212.9501
15.102122 511.16452 179.96036
-11.019993 504.42838 162.76108
8.2018538 535.77667 235.37236
-18.280918 519.45233 228.36218
18.710789 527.10358 189.8848
-2.8533688 559.05194 241.79071
-0.68386841 522.31885 255.81699
-16.887857 504.65085 147.3073
4.9235945 526.60938 229.78168
-21.98033 503.75302 128.1701
17.735027 516.51038 183.59273
-42.426727 516.21777 159.73901
8.030055 543.02802 188.57697
-16.627205 558.95123 217.0088
-41.835415 534.32996 256.36191
-40.86557 554.7771 181.25464
-13.703563 508.61957 122.96364
4.8874884 553.40338 241.81885
-27.849676 562.05853 215.34668
-13.044068 558.7901 220.74638
11.491706 531.60706 157.28555
-5.836483 552.79547 149.28897
8.2376585 530.74976 227.65289
1.0885859 516.96307 113.64761
-37.375042 512.68311 135.36566
-9.4784784 527.23505 114.59525
-22.908455 519.70874 115.07312
7.2741385 537.27704 153.62932
-32.381897 539.62012 121.63545
-45.134647 557.99939 240.62634
-37.153465 552.59479 235.26196
-27.990034 561.88989 246.19226
-9.6188889 555.15259 159.25769
2.5648375 516.55676 147.21185
17.997879 517.32452 180.97931
-46.998276 535.1073 108.15887
-21.760418 558.29871 225.30954
-14.07487 508.98373 132.36501
-12.461088 535.76904 115.6866
-38.913895 527.73132 211.74957
10.73334 514.79907 202.41312
-16.766647 503.18179 129.28043
18.277706 529.92236 166.31387
16.861603 526.19415 162.0873
-4.7543354 553.26215 191.98187
-41.759327 531.32117 209.55917
-22.61438 508.51849 201.99319
9.7596064 542.25854 172.23148
-28.38728 516.17078 210.60712
-35.197006 535.28058 220.98981
-44.154709 556.38306 193.19612
4.6875925 506.36465 185.30902
-14.60052 556.57947 249.54158
-33.964352 521.02264 239.68723
7.0100431 507.45581 233.53488
-50.910263 543.86279 256.5574
0.73458767 547.72052 149.78329
-16.06513 510.37875 153.96558
-39.827065 519.53625 250.12886
-18.483097 500.44 133.1976
-46.984386 548.12408 256.56458
-50.846924 544.69708 256.56589
13.843703 510.57394 181.77705
3.2267027 549.62878 168.67258
-33.507462 538.72998 224.28963
-9.0311136 517.53973 221.67763
-27.633434 506.8652 145.87799
-18.486176 556.68921 167.3866
-22.232 506.99423 136.91162
-2.1156397 505.52304 189.65086
-11.044815 501.72433 238.63855
-11.386486 555.19501 155.85484
6.061841 545.22333 191.98758
-35.220551 555.31665 182.34302
1.6307421 505.4068 235.24898
-46.759506 555.56982 250.81107
-42.726578 534.7818 235.4463
-27.014095 557.93451 201.73532
-24.127403 559.18134 246.14961
-54.742603 531.47064 248.44237
-13.619278 516.29004 228.17752
-24.610888 557.88397 184.81174
-2.6138878 543.30859 256.06607
12.64643 520.03638 255.65808
19.473621 524.31549 172.22086
-6.6250296 559.14545 236.09596
-32.491039 516.79938 211.38089
9.3166895 542.25909 179.65503
-46.961166 555.5376 241.05127
15.674909 537.43518 170.72589
-23.160595 554.37762 237.9549
0.37872982 512.39215 207.3392
-19.817204 523.45831 232.50659
-34.382549 510.60822 125.96581
-21.662165 519.67383 220.75429
6.4115725 545.07867 189.21228
-10.9368 510.81976 154.45651
-33.881638 546.69324 224.09068
-55.038269 543.03308 242.41098
8.0688848 541.29443 244.15887
-17.412889 558.72424 210.88023
-36.959698 517.16241 151.86172
-15.598314 505.46008 148.8071
-3.8024654 517.03119 233.61014
0.81531048 530.56421 112.18835
5.4473734 556.21338 249.74718
6.9502993 536.67737 111.00204
-19.100262 528.05585 256.06482
-19.48385 505.95819 246.3914
13.098821 524.70007 238.64525
14.109607 538.84393 179.76419
-9.8208227 506.94327 255.74055
4.4724722 542.04657 151.06857
-31.24604 510.5275 203.18573
1.4654226 523.01025 118.62822
-42.298546 524.21344 202.39584
-43.582001 515.7428 193.22226
-38.716606 521.33069 205.46661
-32.637745 556.69794 256.51425
-39.385395 519.3067 154.98853
8.600009 541.82312 240.78116
-4.9773912 553.77734 200.10152
-34.374527 538.26355 232.8345
-18.134405 498.0574 140.98361
-7.5891981 518.24048 255.84175
12.876241 508.80634 234.71112
-18.546803 553.40631 256.33664
-0.72657394 519.75293 121.88593
-29.851028 507.78421 193.43413
-43.225597 560.18225 256.15631
-43.525112 559.85742 252.99631
9.7079153 542.37598 168.40479
-17.743736 534.36975 114.2684
-35.759995 557.44885 213.6678
3.4628763 505.60764 178.34576
-39.153221 517.85077 155.49518
-19.632114 544.1311 256.24606
-11.926504 521.44122 114.93663
1.8106852 514.41577 211.84854
-39.034473 548.28699 155.6358
7.1320162 552.78247 247.37975
-24.824032 508.98532 140.96611
-19.280838 542.29333 256.22241
24.384476 524.57343 249.532
6.9989557 505.84808 186.13922
-47.575329 526.2428 248.07524
-34.455311 567.45258 247.28641
2.4921789 549.54297 214.86285
-45.88802 523.54175 251.853
12.719609 537.7323 220.54196
-46.677021 545.68518 234.74147
-25.828239 506.22141 150.1871
16.983192 515.1283 175.55338
-7.7170262 501.91116 238.68536
-41.48645 512.78387 188.44383
-13.074762 558.19653 213.42628
10.174493 507.41208 174.30424
-29.984827 519.99438 234.76198
-41.219929 548.10229 209.18951
-24.662588 556.9751 170.28773
-10.934176 520.15723 115.52625
-45.173199 520.09814 158.9104
14.331229 534.95569 215.18291
-33.403374 547.5766 224.46494
-19.490059 503.48193 149.79536
-7.9088879 554.86487 170.22568
13.920506 536.59406 214.87213
7.7240725 506.15695 175.94107
0.66361141 544.51984 256.04639
-44.52322 514.82184 184.19449
16.760815 530.48816 205.96121
-28.385128 546.50934 235.21677
5.0126753 529.8598 255.84227
-10.266558 502.24603 236.01994
-59.120979 532.88672 255.13026
-10.590158 505.26132 146.79459
-41.713486 549.97125 167.91803
-49.57933 539.48627 161.11899
12.343024 536.81732 220.81151
-21.054865 510.10516 120.93376
5.9685774 526.67957 136.81253
-11.186918 510.60376 255.79434
-17.00828 556.72705 174.28391
-25.216389 509.20801 132.5751
-51.313759 546.13684 171.46815
0.21902847 559.24084 247.62454
13.758828 531.57977 246.45844
-18.434202 496.8013 145.86407
-3.5952215 553.54803 161.76553
12.854098 536.46033 219.48183
-27.773993 512.92786 206.63274
0.41216755 525.39441 255.83963
11.927787 521.31006 157.55432
-24.317596 517.84839 256.00555
-11.637234 537.71082 256.09546
-26.274933 551.78467 256.39655
-14.476534 512.01898 211.36053
-22.672634 518.35999 231.30441
3.523654 531.77478 255.87819
-44.741261 545.89331 256.51761
4.2558622 537.03564 134.73615
8.2928553 553.11023 251.86472
-42.914921 528.80103 240.68207
-33.404274 504.47815 176.40137
-17.692614 547.93622 256.26819
-25.708233 556.11694 230.04544
-4.2571783 518.84363 233.57391
-0.56746387 497.64441 255.54584
-0.71363258 514.5022 119.86621
19.432274 523.01447 175.54785
3.7102365 521.4787 111.4854
0.90101337 522.04559 226.2449
-9.9549961 516.26831 117.33513
8.1784906 544.23279 165.28427
-9.6297407 512.32263 213.89507
-42.758862 530.27783 137.40179
-9.0894308 506.70148 126.76024
-41.561852 515.27991 160.57445
-37.63419 544.68237 138.88419
-42.073212 535.97461 210.90797
18.979683 525.95892 168.34042
18.421936 529.23523 166.40244
-13.74493 501.35983 246.84193
-13.003928 558.60791 248.78252
-19.195559 536.60284 115.21429
-31.353477 540.0835 231.66524
-38.900749 539.97119 131.16551
-5.4688206 509.8891 255.72906
-34.526718 514.08185 153.2545
9.6697741 532.28607 220.0137
-39.047653 517.01831 203.38564
3.5607805 533.62921 110.21938
-54.39838 529.43903 254.45987
14.501847 521.42212 255.6546
-9.6706142 504.92657 196.65866
-27.442225 505.80588 127.06442
-39.065731 549.0274 157.1225
8.6135702 539.54614 213.55315
-37.92025 566.99054 245.85956
3.7170668 507.29684 188.79005
15.166614 535.76556 208.33002
-21.177372 526.1911 113.54622
18.829449 533.49194 175.1463
11.522801 540.02051 174.68704
-23.063753 535.58069 115.21722
1.0209074 543.79895 136.12035
-49.290749 549.50568 174.0499
-14.577648 556.24695 166.73184
-43.239872 532.4964 109.00127
-27.560446 502.96985 176.60422
7.8474436 520.23901 156.36819
4.0029116 547.60059 189.15146
8.1970816 548.56415 243.61531
15.863719 518.55682 162.94638
1.8896265 549.80005 211.13956
-44.113808 515.20496 189.14175
-20.486458 531.026 232.64864
-43.112289 512.29877 167.97156
-17.389158 552.36407 136.0975
-21.426823 505.04346 195.01382
-45.309464 521.96271 194.845
-49.37738 524.51855 186.13977
-0.88429737 547.4718 141.83452
-10.080303 507.37506 144.72046
7.0025129 528.22931 111.16634
5.03304 525.50616 114.12712
-19.423931 504.82513 248.48532
8.4953089 550.27673 252.65477
-34.720863 524.36761 114.5007
-19.967415 502.87653 144.23267
-23.093466 507.9501 138.66925
-43.687393 559.37769 242.02354
-10.665142 543.33783 256.14728
-2.7293749 513.66504 152.5865
-24.912432 557.47443 243.18568
11.321338 511.21588 255.57487
-25.23661 509.18335 134.40369
-0.019609451 511.92841 143.79889
-20.881786 530.88916 256.11371
-39.015396 546.22253 152.0202
-43.084484 528.29889 113.72227
-7.3120928 504.70685 193.27379
-34.698696 524.83301 236.97636
-39.283096 558.66101 193.70123
-27.235725 551.9184 232.89319
-36.794315 517.05573 250.72926
-37.517208 553.63818 173.57715
18.044029 530.9668 166.38751
-18.01852 555.68329 154.42119
-29.451157 548.41913 233.32782
-3.4451904 505.42313 165.75458
-20.16824 522.85632 233.79036
8.7267809 540.81158 236.11513
-16.514439 559.328 231.61333
-24.213821 502.3154 184.03937
5.2298632 547.20032 161.52982
-56.331024 528.62061 176.11649
-32.206856 518.54999 256.0925
-10.607891 548.64246 256.20474
-42.427319 525.67749 239.25349
0.69371891 551.99908 220.76471
-23.570417 502.03461 174.87827
-4.815546 492.98724 252.76688
-21.66242 502.15546 183.6861
15.337249 511.21954 241.45807
-7.7419047 495.25754 250.68996
-33.237808 561.20618 213.23354
-46.359921 548.18451 169.34225
-23.401455 505.5705 125.91286
-38.612354 531.89398 230.64452
-52.122997 533.64679 242.67926
-20.385931 558.8573 219.25511
-49.755737 527.46521 191.74918
-1.0711117 548.66132 146.53036
-41.477749 528.75946 208.45297
-12.95369 542.88483 120.24091
7.0037737 508.64911 193.50778
-25.411526 562.3681 218.74728
-25.635633 560.91547 247.22618
17.488525 535.66656 182.12727
19.806049 527.59576 255.66885
-2.3905792 500.71909 238.42856
-26.502684 501.9931 183.37183
2.8619642 515.81427 233.47438
22.262287 521.17224 253.70743
-29.92288 556.98083 178.64294
-8.2805729 528.6853 114.98875
-21.321831 521.50677 234.84149
0.088747025 507.77148 193.66727
-16.848103 555.3327 248.93243
7.8988199 547.33197 238.97923
-36.524048 507.00449 172.86505
-15.951735 557.50775 194.18564
-43.404026 560.26038 243.15332
-36.218216 554.65045 178.58289
11.509141 539.28741 192.71092
-41.01511 550.08264 165.63843
17.106895 534.08557 189.79953
-34.208961 511.66681 122.74292
24.136013 526.29553 254.48044
-37.830891 513.01868 194.45456
-36.83886 511.43863 193.09557
-30.256796 524.50256 230.2298
-33.33424 513.86017 253.18245
-29.815395 509.80969 203.75211
10.155955 503.96094 253.92752
-31.351662 556.91791 190.04179
-7.9348898 495.80948 255.59978
-30.248688 538.46411 119.41805
-29.475527 520.49847 234.18748
-12.073649 533.30743 114.83911
-28.111301 518.4696 214.69765
-9.6703911 504.0878 124.28629
10.604236 507.22626 175.55679
4.7015963 533.63281 132.88518
-28.229599 547.50232 234.50664
-35.438148 523.95673 256.18411
-31.801983 561.83527 207.39171
-21.644741 502.22864 184.42039
0.28300095 534.00299 122.46078
6.4405203 546.08307 180.00089
-29.457142 549.22748 235.82605
-1.0362759 557.72589 240.40471
-37.570118 543.92743 135.48401
-36.862862 553.51678 256.52188
-30.782902 543.6756 256.35312
-34.761497 542.38702 126.80696
-27.878273 528.07855 228.03497
-48.262657 552.04291 241.23363
-3.5444164 522.48981 114.79207
-35.386398 514.60187 155.68341
-34.828495 517.70453 207.60612
-47.453121 516.57532 164.94055
-31.253056 539.40796 228.41478
-47.956089 516.78094 181.3551
-35.49102 516.99371 256.10846
-31.946426 506.16248 187.43077
1.6522493 558.31653 247.4563
-47.170349 554.07654 185.61615
-54.863003 544.58099 255.4301
-7.311594 509.11932 120.01381
8.5306406 535.84662 247.17329
14.737351 513.2865 234.79517
-27.360655 505.44043 163.61627
-15.200436 507.73691 203.1239
18.755795 515.70465 245.67728
-41.879868 525.42334 243.08957
2.8213968 549.22937 159.3598
8.115449 550.7865 254.64281
-19.040142 525.48419 234.17303
8.2127142 549.75391 246.20731
-3.4461584 553.4671 160.9299
-40.718334 563.7478 247.94873
-9.3421736 556.99512 213.0013
11.008693 516.24506 203.91469
22.330551 522.6499 255.58937
3.7805567 538.63275 135.68484
-15.638853 524.01813 113.80612
-3.5123262 518.97516 224.28845
5.275672 513.33679 199.2912
-27.556568 562.00342 246.66689
-29.367882 506.612 191.02109
-39.064079 549.90912 211.32346
-2.7157278 531.31171 255.93581
-27.665497 558.31543 220.87093
-28.095963 553.48541 146.92755
-5.2317591 561.68677 253.1937
-0.033672333 512.36267 115.41766
-18.813339 515.13507 217.39314
-25.125164 508.15845 151.99458
7.2554483 532.81732 241.89958
-1.377141 556.05322 233.52731
1.4877195 523.67212 112.18405
-20.85964 514.55963 117.20512
-39.785591 520.47565 154.9398
-23.9375 528.40131 232.34328
6.3173246 551.36572 241.27025
-20.873541 556.14661 238.34915
-32.687172 564.82617 256.60367
-7.8573003 502.06912 171.76938
-7.7066164 551.24225 138.29408
-28.522541 556.51056 256.47083
-10.451821 558.54541 224.33981
-21.635902 515.06653 232.757
-15.597424 515.66492 228.88062
-46.569881 528.91193 156.20955
13.888017 510.46069 183.37048
4.5569239 545.3736 255.84193
-12.538677 542.44495 119.92482
-8.3334312 538.24615 118.40776
-10.600491 555.45044 178.07455
-31.169479 566.5799 256.6076
-49.48457 526.89062 192.03433
-7.4827833 547.81366 129.8125
-46.099159 523.91461 256.29077
-35.062397 514.00159 153.01379
9.9217062 539.11224 217.37119
-37.962322 546.63763 215.31522
-27.421631 507.97501 157.28069
1.8471136 493.48044 244.70467
-27.807673 502.4071 174.70592
-38.08165 507.84116 176.39244
-1.9841661 515.47015 115.44521
-4.1325865 553.54987 172.45258
-19.18457 497.91806 147.05035
-52.220974 537.91132 163.0249
-23.519114 556.52527 230.69952
-5.2104368 554.96265 211.82802
-34.737099 508.92892 118.24335
-31.051109 513.33044 249.98819
15.838536 515.22711 166.59702
-11.853702 554.33527 147.80154
-53.949986 545.88989 252.01108
-17.818878 513.01086 231.6745
-33.893993 557.41626 238.07396
-42.440052 522.79181 256.24173
-40.005615 522.84991 205.62537
-35.20747 512.4754 131.60474
22.544136 520.72162 249.51605
-24.250626 554.52271 147.85327
-56.354347 531.61322 251.11855
4.48248 523.46844 224.57428
-29.39843 546.54474 232.77515
3.9271688 541.16473 253.10913
5.3631182 535.75751 113.0722
-42.258156 514.99097 143.94394
-50.652561 550.20538 256.5195
-8.3282318 560.70331 243.54201
-2.3513346 527.42987 255.88968
-16.594044 509.08807 152.83167
-28.442238 562.15839 214.76318
-7.5189552 555.69159 207.51276
-46.217148 515.39197 168.10887
-6.3065777 504.65036 164.47964
-39.603664 559.04779 201.97174
-9.0705433 558.37292 255.16685
-30.605614 555.0495 221.3019
-49.861607 534.47546 195.40973
-14.905778 555.85376 158.37683
-41.320091 557.60809 256.61142
-45.725918 536.8457 107.2166
-48.041328 529.49622 193.63834
-37.855091 529.15472 112.75529
0.58295345 521.04553 119.47437
-45.08403 547.44019 167.70862
4.9332056 535.53351 137.13608
-16.479588 521.5459 225.21994
-12.536216 545.19269 256.18637
-13.430603 525.84399 113.93439
4.8385782 545.4267 155.94121
-5.5648689 502.4422 255.64854
-0.66548347 516.43506 120.47165
4.1923399 525.18213 146.40054
3.5454435 549.28607 221.0434
3.7614641 525.04871 235.43353
-4.3082209 500.1991 239.84729
-18.422047 501.13062 181.25647
4.1037302 530.90778 148.20999
1.1585131 524.63263 231.92935
0.15779209 550.65125 203.47418
-29.273846 527.7663 256.16385
-1.1089602 535.82977 114.85669
-11.142143 555.66742 182.70766
-34.419136 553.30206 158.54047
-23.075443 513.42505 235.59583
-55.086388 530.89429 256.45746
4.5707808 534.13123 148.95575
-15.499924 541.78235 256.17883
-43.225655 523.5791 112.9567
-13.536756 557.54614 203.39191
-25.681213 524.4389 223.1935
-10.795141 499.8916 255.67319
-49.00045 523.45166 186.96445
-32.320831 526.37689 221.0547
-50.914742 529.38269 190.45995
-54.056137 545.02216 188.02524
-40.518238 563.8833 242.79562
-17.057129 558.92969 216.1553
-34.866028 555.47229 181.87744
14.846707 536.73334 209.32825
20.088203 525.72827 174.92812
-55.18018 523.78973 169.8107
-59.297649 533.73804 251.40295
-6.7574444 554.24805 179.72665
6.0268354 545.92767 220.45856
-25.136959 562.25732 251.14456
-12.512422 510.83032 235.54388
-10.343349 535.84393 256.06204
-9.1710758 560.37158 240.48743
-42.160927 525.59528 204.91669
3.3301859 549.33508 162.7338
1.1691866 542.19781 132.55911
-33.258251 540.61053 123.14474
-18.880272 512.02698 255.88721
-36.095078 561.08191 207.40097
-39.873512 524.33582 117.66138
-36.600658 512.81537 135.88489
-0.017163277 550.97583 183.21619
-53.853466 525.09991 182.90265
3.5419855 527.36707 110.45288
-51.084999 543.53168 166.69795
-10.023478 510.27255 139.77435
-59.839497 537.6955 249.25706
20.216125 525.4397 177.07028
-35.641293 548.2121 144.79843
-0.73363113 534.27991 120.26485
5.5957918 545.36853 197.47743
-16.290615 558.80243 214.53793
-31.038696 559.77515 256.53183
-12.764297 501.30441 175.21457
-33.783443 547.75958 135.80923
-1.8167782 522.35199 255.82874
0.67670918 516.19995 154.64195
-2.5257368 507.38712 198.8549
0.65691662 505.98822 165.26208
-7.0095472 503.95914 164.71855
-48.841145 539.12158 256.48471
-33.99448 540.56512 123.80655
-46.060383 556.60443 237.9985
6.1059713 523.76404 111.98219
17.126125 535.89386 183.1337
-9.9564342 556.79364 208.23543
-12.654582 509.9166 138.81439
-8.5384207 535.4118 256.03918
2.054925 511.90411 141.8504
-49.799809 532.33014 256.42004
-37.150608 537.7655 219.49451
-42.209484 531.22223 143.10942
-28.961487 520.34088 238.41891
-13.049066 558.43201 216.57758
-32.18235 538.32397 226.21439
-19.419737 556.0152 244.29176
-11.066294 506.06155 198.83713
0.69645023 532.22296 112.32584
-59.321907 533.39862 252.78934
-36.807034 533.70648 113.83391
-56.23056 528.04462 176.01871
5.5146837 522.57971 137.7648
-40.784821 544.00757 153.03209
-46.706417 554.37384 192.16656
-33.232063 526.99884 220.58748
-28.346359 507.28241 160.07422
4.5190001 546.79132 193.65042
-30.400822 525.99963 256.15585
-1.4673634 556.90985 236.58437
-5.9355078 554.16193 172.87039
-0.9690733 493.45395 255.50401
-18.34922 547.30878 124.98215
-14.038578 510.56827 120.57005
8.2934752 534.97827 154.63077
-5.1280947 553.88849 172.65002
-21.39349 522.16406 231.87257
12.023894 511.01764 167.53098
16.535053 522.56122 162.46162
8.53543 541.96198 241.91768
-48.475723 516.93726 173.86742
-42.485546 530.45734 234.19125
-20.657446 550.2417 256.32321
-50.077888 517.25153 173.01755
0.77534962 535.09235 112.74622
15.553006 511.33221 248.70079
18.652878 530.51746 188.83768
-37.302765 524.51331 234.92236
-28.485352 552.94055 256.4314
-47.835812 541.05438 236.80295
-17.003035 502.16766 187.61139
-3.5910044 506.32242 162.96373
18.34174 516.65295 237.18011
8.7607183 507.26718 188.9877
-30.122284 548.74469 235.53094
13.871552 514.37659 194.84921
-41.180759 526.30182 130.27664
-41.034599 554.94202 182.03067
-1.5949507 550.40588 150.67328
-34.615868 566.48004 246.69386
-35.994965 517.97412 247.18707
-1.1279764 517.43805 121.41161
-30.096676 566.64459 254.61472
-2.2052431 558.26587 256.22562
10.003947 529.66254 156.07608
-32.023094 534.15814 117.5354
-22.216236 560.33746 252.05588
-42.440697 530.35925 153.06113
5.697814 507.87067 190.86298
-5.0414 555.138 214.53001
-31.258152 560.89557 241.96703
