# .PCD v.7 - Point Cloud Data file format
VERSION .7
FIELDS x y z
SIZE 4 4 4
TYPE F F F
COUNT 1 1 1
WIDTH 865
HEIGHT 1
VIEWPOINT 0 0 0 1 0 0 0
POINTS 865
DATA ascii
33.173755738426635 41.28689956665039 123.28109700181129
31.426255164423026 8.286919593811035 46.03763186471897
48.06246354778098 50.02799987792969 -20.232860840068575
60.77625080350969 36.12989475824047 124.73367721593358
8.830632264553747 24.09550094604492 58.0787100554397
16.61522169769651 9.296071690286048 6.142643033699102
64.59120178222656 24.889960814804923 38.391765876054215
42.05501529382064 7.286920070648193 78.97605660500206
20.154770202947002 -1.3116549865859697 -17.504337453269933
45.28666837848204 40.28689956665039 45.70403076730439
16.651219598664657 9.271890616964614 109.76625298194247
44.990466955513256 7.286920070648193 201.50853460228032
29.719511312018895 8.286919593811035 118.38481339965708
63.56677270474347 31.59022790750678 63.95610110183253
55.02314729713274 9.445768942645335 92.1843258132444
17.43231168139342 8.758832390832525 87.74026371859253
7.376257437113562 5.033953692592525 2.9544387251656525
37.99334199583198 41.28689956665039 23.384580929775396
1.3511623356856766 36.867875769186256 1.5185164651592675
72.11248753801263 12.247924434032647 2.479465680417983
36.36594786326092 8.286919593811035 66.37461325417823
11.732201227828435 35.079213461439224 19.78170841061324
9.582207197191034 17.0913972106292 132.72910736789592
74.31225922803559 26.506367197402756 -16.850214744494462
9.097721003129244 28.942411444263712 5.512395117028575
10.023263856101167 20.02183804581469 33.694602397030096
54.6789585438368 39.19703648242643 83.35599348753176
38.12149340150667 37.67105142910377 26.50871047266714
40.55423460095136 7.286920070648193 82.05274329158729
11.044946330943617 12.954955597684368 69.45654184101551
10.211959089786605 29.541182249103493 150.6037007108901
42.003297481511936 8.286919593811035 93.34643973383727
67.39852530525394 43.39662808242466 -23.908326993635896
16.933030216898608 38.315713520001566 71.54078311120041
0.014750630659952399 28.08168085425303 -15.651506431913337
43.150866215289206 40.2868995666504 187.800231144478
65.55921153221077 43.73994934915939 3.5713834765464583
57.776528270588756 48.520296502861314 5.781527748891771
32.78456699467044 51.027999877929695 -2.722561768944281
9.75425804757811 0.3042969454957245 4.023471176036811
20.81045203930892 39.756522173351485 49.55768777327985
41.87999878204023 40.28689956665039 113.1780019826433
0.3720442901519471 13.597587510435497 -9.871091918404616
68.60714211618448 8.242328632269983 -29.03374686560101
58.14049351878597 10.122642688398066 57.138956940481194
12.121061514015606 12.24796034776982 57.164364316146056
68.66595605809962 41.21579119458433 -3.4683247765935867
13.652980517016738 47.73917707829325 -1.975141327009022
69.27104562870207 9.059979473844907 -22.34997577236725
42.563625530540364 7.286920070648193 185.12433468665927
9.14231128105756 19.397616566648725 58.188095288957044
18.714750231254058 39.485815217806056 64.82123651337763
47.77036924920374 8.286919593811035 91.1638452583052
9.59119987487793 24.292739521969462 71.34423795010287
46.32914642934335 41.909121095028674 35.11659115909305
13.48106974421821 47.65007675760881 -15.657160491745323
49.03454576520167 7.180742556548482 65.6427747480063
18.301165357546985 39.21420331525583 71.13665073499685
60.62266990133559 5.1340785847371135 11.126255514265193
24.03276686207772 3.668850285687591 15.369473511758518
8.59119987487793 23.587960741163663 55.14418670030474
50.47276971184933 49.94712985628475 -17.071695694755554
59.97002761832255 35.55334296289717 32.58341380804573
61.2265633840109 35.5350147789321 44.68701589945515
64.09995266881455 17.755699157714847 89.03940446002758
45.51113698799135 12.012714472781427 28.21786835464213
70.10803910265798 20.920530891540853 10.791752048253533
73.37697247017118 29.071801805958014 -21.936580318685866
47.61991626724464 40.28689956665039 84.73511624158846
38.68750452994482 7.286920070648193 34.365028554207576
61.43006867212783 33.62499417137498 71.5819649418238
10.263986284375456 15.82201466140048 112.56082949249759
29.303886208671347 7.286920070648193 108.17544355609793
63.86664182184023 24.4783992767334 112.14463365104457
60.678113684941074 34.618569262119614 66.04514678633933
60.78571531705528 45.09700042827482 10.313802060878558
0.08946069913967253 30.06094890434263 5.429892109207639
14.475464509559584 11.872131409706109 84.81467823257185
34.59178913056459 7.286920070648194 96.14664142923104
62.089300289370684 34.395920460222804 39.47692413092605
55.6004259364355 47.777961066597605 7.974946390927882
27.206671075908794 7.286920070648193 119.52023915728358
7.916810199330161 3.3141817906618134 -3.0031470992920095
70.09494013064396 19.63461758225591 12.381825566342936
14.081330507275553 10.960267782416402 70.8314492512258
9.544122088981641 17.29106401931572 107.11866004653977
31.01478002595271 41.28689956665039 74.23184847193613
74.33024389782265 22.263430437852907 -13.58138886498797
64.24734373323238 3.768165520527555 -11.358055693348506
63.16845849084214 46.96249742070465 -8.193005231970606
24.38126447816126 7.286920070648193 25.869720267940615
51.43106048080769 7.637857843591257 46.888563329873634
72.2282085251603 15.503045343101842 -17.555427308348108
14.245605692223485 36.55081220346034 21.844641737274813
62.98446464964971 29.536426425329026 22.36902611328512
22.928876136207556 43.42537031009805 120.09603643988464
9.440867192182914 17.8323930766393 182.21467639742406
24.68226624614752 40.28689956665039 43.952151717306876
9.468028945854766 30.88380556473615 116.52295345659857
49.94573737716947 49.99547680140488 -18.77831711497797
7.1505227321324485 21.762274539601748 18.685982930155824
18.10764442608807 8.315241900411086 39.20747946439337
73.17164548661455 20.53501336897057 -7.611803000683308
9.596196425583832 17.018056613201466 111.90262542744347
47.95735244654719 1.5801879710005993 10.613361696279908
39.39512312482209 41.28689956665038 156.61862194636302
14.449566106708732 37.85575999569639 35.061032736424565
17.80371616747826 49.210144572357365 -27.24172052780766
63.59120178222656 25.83170396657043 68.95714585367998
59.475385588944555 36.197494541283504 26.125382779826968
22.883220341757564 -3.1320195233362944 -21.476944297830585
42.01475788754986 40.28689956665039 99.28597862511764
9.352069915305115 11.77277425009233 16.763321353755472
60.2742379394207 35.15149031218158 7.051902616018861
10.400713084855647 18.043090079598187 -4.734977411139969
26.77881071141499 7.286920070648194 37.36548412811581
63.59120178222656 25.430324983068225 68.39770993230233
35.71195946673792 40.28689956665039 114.60195547441901
35.14022287145857 40.28689956665039 90.18598888442881
48.73366255149074 41.28689956665039 36.87457466066083
11.880643914723873 12.405972186445599 64.78645314184674
10.34693675174331 30.248792313157615 23.98382751531211
22.9638206976706 -2.3966305754736537 -23.79697378992463
8.962116780641932 28.231486265855537 99.063142460115
30.96920281286035 8.286919593811035 147.91858435483
9.811681249326652 45.518110263193805 4.302821852035688
6.669476866481933 13.28463217432937 14.469148987087712
15.044234793473915 38.24636640588031 55.37005053731493
62.20710432263584 46.352233137179034 -5.219671135535981
50.52099104119528 41.10954669209727 77.27386718040025
9.641137822889169 45.37962091859845 3.305403307823301
12.343175661746239 8.399642241928204 16.273131974943826
0.54663475637832 16.922797558459735 -15.353084763764858
57.48742789490979 9.469181989898033 89.571884778629
31.20528085976947 40.28689956665039 45.072871571710124
60.27804608833765 36.78756894505118 130.0102834286818
19.070671863872732 39.719558175878575 36.38783913520029
10.039406329291515 19.937212396689624 71.47986356215917
19.466360754167745 50.64960120535963 -12.478021191295623
14.233112006476077 37.71317621743595 84.7093312044171
30.050184848815462 8.286919593811035 176.40310280507558
2.293248367149248 9.888036453919561 -1.6571314882795047
72.98809228828927 18.5346378461165 1.4048413252637562
61.917684185927975 32.79231927388702 74.65343987614095
38.28172774589465 7.286920070648193 110.84103365551842
58.44933041984241 38.217291033857016 10.766809114280859
12.95443777217362 12.871031829525453 86.88943276709318
-1.052207333988984 27.35191740954251 -4.783870377205825
66.62956646130519 5.807136402955313 -13.05992483697005
22.88815201432392 50.96350466504947 -9.962096976548027
25.182680867422803 7.286920070648193 73.92025849427313
5.3379720155797274 9.52390265139714 9.69494679785341
14.995326083782246 37.04317300985724 68.14678761804794
37.484360637055126 40.28689956665039 48.44200869592253
34.76509894664797 40.28689956665039 108.13790698215817
24.775246666609696 40.28689956665039 46.94384309508595
11.417501425462099 14.065566729236807 69.20136406621832
73.17923044268497 20.617674747816533 0.04420311145961264
60.92636126883622 12.642171000142003 118.61982692166364
2.00251002314682 11.860417800282544 -11.05220940068718
4.194776413210512 8.711180797278688 4.7104691502309235
11.824536658667391 15.230085942886546 23.694389771681838
38.09090509170915 8.286919593811035 124.81468383584046
46.770991248593596 -1.4541900157928471 -9.506494356091828
56.67788774990054 48.83620104784247 -17.65683312236395
10.881317633175142 31.90765744755859 118.63485749341412
9.305104338953626 18.54414990015756 102.73059682879929
29.84690745408541 50.02799987792969 -17.88453939024559
46.197437116662904 7.286920070648193 166.7946175977192
47.9744977368687 7.978545897554076 65.07710721578326
-0.33894737169350564 32.17411000378917 -24.202278202419084
53.929626961820524 39.489421242912854 42.182408939496874
9.483345792420238 30.964106396653296 -49.413237062466266
67.34931134481846 5.117737031785077 -10.365198054070143
15.439367737198031 10.068011295547016 30.575240275768998
64.22673357438693 19.39935272361913 39.97705896287498
62.89497711515271 18.23340693919834 55.82009704784979
48.78737054970893 40.28689956665039 49.21793630531789
56.141193905564265 39.74471204986665 92.88176700376773
57.67444437348112 11.011865643619085 65.22219962140234
25.449304564788683 7.286920070648193 36.22471646092427
9.43818964348947 30.72736861190005 -7.855282711879312
48.59708248737456 7.286920070648193 100.37852777003953
61.50988251020895 33.519873153619706 76.91161246217554
9.801108762535993 27.387330847560374 47.61252120189377
52.638677451115214 7.8682007554979165 26.11838650898943
37.96919541473718 40.28689956665039 111.82586797712534
50.38243083267591 8.383748470053236 26.504728776261043
25.090058233576276 7.286920070648193 74.44100500385318
64.16524795139978 12.946159202769156 15.672785875474748
20.079774531950015 4.577697745618343 14.677223509657576
9.076302445793024 5.313617307959136 7.803653539503078
38.59497484480074 40.28689956665039 93.6771194637165
43.06010831892555 40.28689956665039 63.724556727116074
10.55116626351877 15.38472809050215 120.17186611378392
42.91615036420646 -1.4541900157928467 9.074212495223133
62.5524185999266 14.693641893427149 47.00316490900029
46.312589794739495 8.286919593811035 33.83879018645934
21.22805766440244 8.737679060887233 151.66326696862842
62.642080612733665 14.907392819496454 110.98209268799624
44.861218019492036 8.286919593811035 53.26247478055993
5.334801972992174 8.269038939663224 6.919802322600043
19.67378841719865 7.286524447355488 34.303633353635426
63.14247379730337 15.933909426117076 138.78016585019049
62.84001031365799 30.804206192286433 83.79264303705406
38.97535176174 7.286920070648193 61.375313840141054
24.549157395629894 -1.8335991435015375 6.896463730681839
43.736399192311474 -1.4541900157928467 -22.984898370435367
54.31192918844946 40.386443288628904 116.30543683587105
-0.9411153102879783 20.011086696512766 -15.00742011062273
9.583671615431193 31.490079351733552 48.38620750001835
33.30142320916454 7.2869200706481925 105.92992946435169
62.789804965450415 31.828884956086767 88.42671019195257
25.260228393392023 41.28689956665039 56.99220360011533
8.933251652016438 28.08015656283117 9.092845355730775
61.65669424410894 34.96763172420031 134.81629813432377
-0.6640245902271347 31.042491194109648 -35.75530934326681
7.572550275600164 44.01980044072789 -6.951318207684281
61.72777224995433 1.1899153132499993 -11.842863653584686
59.37792330028495 37.514435633482464 95.09253339172238
14.357783931966479 36.62448256003849 68.29260593172181
59.99522875201095 46.527216955759634 7.393552649230042
31.40466243611698 -2.4541900157928467 -11.276253311739314
9.651843616772538 45.387296904385664 -28.828685006338915
74.29532710226741 21.882913718175324 -22.78390319699963
43.805674766343564 41.2868995666504 138.78591026050805
24.695461954660466 7.286920070648194 38.102237018296165
21.464193523288902 39.88121154637898 -18.76080949120974
41.500628285175615 7.286920070648193 123.10725666156432
69.76584886885783 8.091172533973015 -13.47074046652703
60.50575919255911 12.087571355547347 136.80111687387753
2.5992756721765042 9.29572981529559 -18.236623408778133
28.82969635903295 8.286919593811035 118.30397138280296
13.946771126985308 -0.4389914908828352 -11.687246058736198
47.89331825723778 7.286920070648193 209.38709063346596
57.71046368584716 44.87392190245052 12.700464802456196
73.3323974609375 24.062830468951525 -3.189997387428072
56.30334600572221 48.943895847987946 -12.926742047874981
10.819215500665795 1.1820599355665355 -9.392363890621022
71.73355079406292 13.781111858336072 -18.124500759128082
63.328224716127764 46.83273866679282 -11.512587061409889
25.11826906917231 40.286899566650405 69.92727738086661
62.26992208840707 32.08420729438161 49.23207658751694
13.607568438116985 0.858007189098314 -7.920999103198037
45.76587582970419 40.28689956665039 148.78513628146715
32.872139190066584 40.28689956665039 110.00347063716876
45.51676578264863 41.28689956665039 40.6392269234577
44.38132006291739 7.286920070648193 37.4809478181537
26.213868787984502 16.34463538245629 33.34856627436707
29.964183345428822 40.28689956665038 131.1053176370946
33.123225965912326 48.373009947623274 10.02916052570378
55.50454900231266 9.649413337817478 90.01303359097503
24.016139071334788 40.28689956665039 70.44598231119726
8.515944617796544 2.827455848297345 -0.4398113966778877
54.34302892531348 48.1792192503526 9.544089758542187
22.010703786602534 39.9854485020496 120.61017913218598
6.697407061701914 42.94280364737416 -15.532581331576672
9.538041672521436 24.095500946044922 111.1410459128984
45.65362766287945 8.286919593811035 124.26237586203898
69.36296178684347 39.40075960579807 19.448337219863475
8.048363760176079 19.19572469126558 69.79339189088213
64.47523031229613 21.3510861749592 88.33671680582857
56.44178830718393 9.004991143480511 75.39623480797593
71.10030835154515 10.29449648510143 2.8941813782378727
11.430098162080718 47.708875753458216 10.551191691997955
58.41708346154146 11.57415520553864 18.176036215865032
39.684549302218876 7.286920070648193 29.07996000852527
64.39831808294969 21.039587778203035 107.45515838135218
45.84979287922549 50.02799987792968 -3.2770709688254476
54.927410573463014 50.37537159015296 -21.774960754783645
52.07820508846663 7.600295558382163 120.94100189208984
50.70945452834067 41.07359817917229 99.71063005332236
73.3323974609375 23.135757720825467 -17.477791034755633
57.542137269146714 38.90415741366313 62.10367909190489
12.18806190613196 12.203877722014443 51.20839103524455
23.17180273828527 41.206900122514014 30.24790562328953
10.512143949270836 1.341218983681245 7.267986791230886
28.762379178510265 41.28689956665039 49.49879760169366
68.72954061257823 6.816977129793814 -7.827648753326507
32.97684127917884 51.02799987792969 6.6264550694963145
34.67615113220205 8.286919593811035 113.79698649167308
61.53176921086582 35.89705054231895 20.26880876134059
10.192514785842974 19.13455332645792 78.21490456435211
42.57498035805383 41.28689956665039 22.68273206364525
72.55718559971973 27.07745047092054 7.040748773275528
55.29623170431586 9.546851180830885 97.79330532694846
1.0359632743475529 33.352059229830274 -12.261327734375396
26.515122338961127 40.28689956665038 97.33194241048558
63.964095936878365 45.035773294047445 -22.61504131270825
26.382786222045468 7.286920070648193 28.01508703360081
20.039535477570166 40.60942432241783 72.98208678716703
62.916560335255426 32.96494883614278 99.33434967414586
40.88577704792019 51.02799987792969 -11.161026223285198
34.223560535377345 9.167388918837078 23.836461208757527
55.30231234317237 39.89604244859988 6.066370276243333
47.32744086176992 44.1582638525431 17.58395554846562
63.40907339461595 24.095500946044925 34.06235789391816
64.8311435678221 25.682320460994923 59.21694265774887
13.14353477470385 37.136555017013 51.87277111012438
25.341933814250755 8.286919593811035 68.68891327617868
22.885889193713346 50.963297081604324 0.5664292111016742
26.609388215963452 40.28689956665039 21.783679021186533
22.248283134146654 41.03073999042451 94.72002481736993
64.59120178222656 23.545218682227894 100.09758151896612
55.95234236147145 8.815659397133823 77.94729032185423
37.74211400622648 41.28689956665038 117.68107222122248
6.118752765532021 6.343357799313265 -2.8106748921549625
15.076681653653493 10.306121615981944 93.62600863119002
23.94623556928284 -1.4541900157928467 -8.897651370560606
70.99549734798961 18.20101220423328 9.186350503042085
36.684119943786975 -1.4541900157928467 -5.964085157894818
44.90077591124601 7.2869200706481925 148.8261771436984
9.14718314941366 29.201724056560806 -14.531562348310565
39.15999383440001 41.28689956665039 42.73737297053326
15.961751378791252 39.64181616372646 80.50547258174402
53.55942964495559 -1.0901226039389778 -13.190084754232759
42.258824211052556 50.0279998779297 20.191752907525284
24.398425926156253 8.286919593811033 129.59142514838086
19.601158041614994 7.33423151350584 37.88725308020969
62.413774992631694 34.17170845857865 98.21522293871035
44.368111989245314 7.286920070648193 37.7233119911355
13.229036756227254 11.520233520237326 76.34430292137947
47.208504858438104 -2.4541900157928467 -17.29672067593617
8.593410881381393 22.275308038273874 27.677385498274433
12.286160009193097 35.83101161525322 47.59019607049471
70.35777612371857 8.862247397496914 0.8865119917481146
22.966069676643624 8.406160557710809 91.48358951866028
9.59119987487793 23.69046247656822 87.99207673217833
-0.8966049948820611 29.04790316885439 -33.10135637800076
22.01953567127928 -2.883690076565052 -16.494974458082353
47.6835561794308 8.286919593811037 69.14210473826236
9.232961011112582 29.65142717430466 58.85290348665752
5.617684180079053 5.181567129769294 -20.933659146190152
53.622157435580945 7.996869503281213 114.92452462494691
63.870960193962794 25.591556705636968 37.03912192669074
63.65853205124692 2.008072007998158 -29.89672266909259
0.7901638678232794 32.49742614354117 2.541966850044515
41.30912851176402 40.28689956665039 67.57980372547448
44.16225389805862 40.28689956665039 46.414853569902704
11.717789570072474 34.96554145401376 107.13161197212523
9.839346753847863 27.587790590967195 91.63049228150642
9.027451656593916 30.86890477570689 23.451101464576357
31.37309778066087 41.28689956665038 84.67508033198516
15.960935186620588 9.725302069725359 99.97198888214962
68.9655300175112 27.96305569651077 14.082587684180949
2.42448658193014 9.631980752420237 -8.134308894198957
4.850200452273795 42.24762228834892 -6.56717167031331
37.948687696537704 41.28689956665039 100.868186569638
72.07539402963046 36.397342437299606 -14.141396510600625
66.69315498783874 38.75457994829714 9.643793540214649
73.16827617221549 20.498294346288215 -10.963532963842352
62.7468639569217 31.20993575179753 20.809768008115086
71.4586752847188 10.985569701017202 -23.32140980725513
62.750813148177144 2.551651092685856 -4.852405019791463
9.455137507499657 24.4783992767334 68.82829061929827
62.842043573685494 33.27145942420441 22.16769817952977
49.2084411320813 2.020580626446476 12.83136659695131
28.818172479286417 50.02799987792969 -17.98590704625673
35.26197901784822 8.286919593811033 129.57066849057554
63.591050503819005 31.53068709660596 141.20451010131376
31.272895228298005 40.28689956665039 144.02507385831046
43.03684120220261 8.286919593811037 57.47518326199102
57.567013140554316 5.284809830753529 14.942153650069441
62.880445212699094 15.436619271796106 73.5708642212995
41.873747600981105 51.02799987792969 -12.725204487460188
8.591199874877928 25.260043181661256 107.56657482875988
53.115448426631325 40.61466629767003 94.75558431882749
13.360207776025254 -0.13484870412977618 -6.4452779964805575
57.96803467672304 3.8374628180470034 12.571821209439795
37.588378702527784 44.81648920479308 15.505715225243902
54.17688988091679 9.151527771974546 65.80065013087264
20.22563226765124 8.928887501758973 60.460241375530586
53.08247137845203 8.869106553414849 30.11063302079818
-1.149919986724854 24.6507845757901 4.211621978290992
67.14080106086514 42.13595682576019 -18.228334794066093
23.610993900192305 8.286919593811033 216.9198482434865
11.172748772563484 12.831066627343084 19.997711082395327
45.71803708200344 8.286919593811033 67.24499207839656
33.066721696211715 41.28689956665038 180.36804866443163
22.79313357076951 7.439147327354682 81.07724126999011
73.94673662126458 30.48985377664659 9.557643083820718
12.948197975521616 35.053960018609764 86.71283600109277
32.54372139155604 8.286919593811035 60.911379851938555
38.64128149087394 42.69236276485468 17.236715937086483
16.98662674456091 39.52184782190054 135.63527764024363
24.47222076850927 8.286919593811035 147.34481444735601
10.363671537069283 18.237277487503732 89.67383609371845
3.4090696765179156 9.895590252626638 -22.30573121884162
21.40552344357662 8.703828207692613 116.48281162635354
39.84778987918719 40.28689956665039 37.759778621792165
60.895900793871924 14.24282491774853 88.09082731163637
51.80477439416498 41.090710644422344 22.9414642995876
63.431656830335015 31.794127880048784 94.45729265702059
49.50927104763215 8.27129194474535 110.53828386323214
64.59120178222655 24.592693077918074 48.096426479799945
57.697763214638115 9.787206507831058 83.07512293026029
27.20765078572957 40.28689956665039 120.93255907057885
10.788931757967989 16.80668397971393 95.50671472080555
28.50584296279337 -2.4541900157928467 -11.62004836633006
11.379511803302238 15.907562546385988 118.53606501251463
44.76284452530247 40.286899566650376 174.29218190023295
34.30636643987964 40.28689956665039 89.41280856380594
31.87279232956195 40.28689956665039 36.24034477728447
53.48075432042496 7.858438440684342 79.21040828468908
19.588002287723963 -1.0869058536722527 -10.054766108217517
62.54233208456787 14.775723268676973 88.89795293629938
42.32095082145633 51.02799987792969 -2.2093768614509326
12.705302145981898 35.53925495536849 60.92002613837488
9.323554977116633 30.12637943067824 111.47523841056613
18.268799056845676 8.20938791620398 90.719644070809
60.526558986619996 37.0829255380112 20.335475959770104
28.590244745699195 8.286919593811033 165.4763940912766
66.57974360508605 5.745661458689224 -19.825012562573583
0.8707396306176609 30.637708363813704 8.468762758897729
61.97112404956976 34.55245577162712 78.23991918542987
29.64407392276605 8.286919593811035 112.28169765408954
17.573751212693885 7.724644908093618 18.122784717242208
33.027970250441044 7.286920070648195 110.23197614108506
64.59120178222656 23.727536736111755 58.63149398961814
18.536189303117148 -1.8820974884086987 -31.045961690101514
40.87732049655979 8.286919593811035 87.09710646597524
48.504437822540716 40.28689956665039 112.03442873263818
13.806629946139768 36.262525457142694 77.43752783559795
58.042559129541885 38.52575124169684 54.63653380111582
60.94421429277362 34.26657371203809 103.03661874768949
49.17583311068468 8.116190649856527 -3.6792521621322862
64.37186366861036 24.4783992767334 28.58768488798358
27.299446078918095 8.286919593811035 154.2856288425232
59.745227876160385 37.23626692709581 105.99864187587058
65.41858160692748 4.7202623483774095 -5.616202657139861
42.83792672896899 -1.4541900157928467 -4.567954206851697
21.992362978031 8.591891027341255 125.98491257018858
9.904358885573673 32.20419068894225 1.9523758340497679
62.874500158493404 30.56733944745266 37.79384319121001
73.94703030789425 18.087240273300896 -28.421627724449863
59.10994667377749 12.098986256402906 -3.064015832832517
4.179062414705686 39.8441087445793 -15.07639276512085
54.20392437162165 3.9779536634783477 13.35339255791455
63.63842269861616 17.865785374197007 66.8345320336029
39.19174751971575 40.28689956665039 91.72126235351509
16.270675494784342 47.79773447367337 8.924770318402626
26.96886236454728 13.954138124373973 29.66753150948389
42.23815558206572 7.286920070648193 189.0919910011462
66.0192129663845 3.9250373626273074 -25.90153459777607
8.59119987487793 24.475740788423682 94.17339025821948
26.83107421030477 8.286919593811035 78.35120657034895
49.27706703538151 41.28689956665039 80.838610428496
28.327960802914156 51.02799987792969 18.05898826617168
6.267895998438144 42.41431416131849 -17.987735541887794
44.551059446746414 41.28689956665039 80.9608237548448
18.149813979523287 43.02202861032758 15.377851660364154
66.38226308158714 44.35374270420988 -9.71810953673955
64.59120178222656 22.59692808683723 120.79642243435285
9.096019216651676 28.9334895771346 72.234903469551
14.558247552601154 0.3660506186480198 -8.902305810374664
42.03660226092871 41.28689956665039 102.2006934989186
4.783932944080446 42.16570743566673 -26.162712992716248
9.345135158699946 30.23951672213414 -12.075875521331277
32.42718448680555 41.28689956665039 68.14648176145307
49.967513927480645 8.358698202587078 79.6436698457078
57.19442622685102 9.406431287307743 57.76412795558015
74.06677463972012 19.39219164761294 -35.09459958315021
48.54895621258721 8.088119374537765 72.68580681409266
32.803202355619035 40.28689956665039 30.618881720076242
26.602511950965848 50.02799987792969 -5.0773778838657435
44.57370661852475 7.286920070648193 22.24338543383595
19.55836949174096 1.3243245210419303 11.280953960384544
23.059831348903984 50.72003261859108 -21.845584262127947
19.979012400303823 50.69663011890313 13.731781780620722
61.90801025439616 32.89914302884951 112.78573883164279
22.88367333645111 47.392169042399985 9.950592209806086
60.5293472623414 13.759263627736772 41.83187364085673
9.933936683455068 28.083671058727095 50.53572564486523
48.27921462947437 8.286919593811035 102.75499343228314
39.385129385281566 40.28689956665039 167.80080854914695
6.653689472123976 11.341862695099163 11.373506631765528
19.191718393373296 8.774836754246888 62.08295069937937
2.6623371266187124 11.337369089592048 7.577559247929655
24.755801855413722 40.28689956665039 29.760320228454802
33.18534215124757 40.28689956665039 74.51418141497426
63.59120178222656 24.25491873527447 114.8441878380173
42.06966868982978 34.749745106700566 29.46725898962031
53.32340801133749 50.77819154257351 6.069882821649234
44.83463298973193 43.89951538483633 15.377866282589105
48.935075218415875 41.412052584971505 69.00580549495342
28.68019811024046 40.2868995666504 48.42438768626274
48.44312837581738 7.286920070648193 199.8182064061397
5.963612154499295 6.534478806452981 -13.687023786120044
33.093015278406654 -2.4541900157928467 6.063657333920669
7.110005137564421 23.399151223539572 17.12010584385807
60.45214370165949 36.5570882986555 37.17805072851774
36.39905026836172 8.286919593811035 107.68120769231395
10.321298765997918 30.11438713475607 101.43329537926488
44.280950208413884 41.2868995666504 107.20392941590603
37.22762973102793 7.286920070648193 93.75577113815083
7.697875396916018 44.840410376087355 -24.05920028686523
8.918470840396 23.948377057762766 120.94100189208984
69.92373144733078 24.4783992767334 12.195711326643673
11.658095733275225 15.483674047365454 41.46305900397876
64.03173892726895 29.904751239981067 101.64681590366426
74.02978190042147 29.58482150541865 5.26628565289303
53.36719035709226 -1.1077597110835518 -40.283908193973076
72.34146617470887 15.897302072357652 -17.989309897900267
38.28052167771359 -2.4541900157928467 -0.15908572837884982
37.895249173698836 4.041536986898101 15.943359397539238
32.43254465014132 51.02799987792969 -17.793807768406015
7.487873405782871 28.52455513107764 23.391970092631894
14.311705783395647 10.808593951455139 100.59240337498984
41.55980274515146 51.02799987792968 -5.605015851944283
4.189847043500861 39.85668193068485 1.0407640477213191
8.997024485365285 17.751206878076058 107.78264036766244
35.424550855722096 -2.4541900157928467 -6.076560653251374
56.84808421155523 48.78700142759703 -5.968441639875492
9.448911121635474 45.222578749529816 -29.15289426360579
22.06467021288134 50.88796125318961 5.957013479683416
46.88006357422002 7.286920070648193 118.66241650841638
35.86491207496699 41.28689956665039 90.82790407355894
60.48936681961489 12.065936819786517 87.81663643815106
19.46417958498063 39.977984892117775 51.23027147949977
49.731655641855255 41.26010866160718 88.54191031033236
10.52506125248248 46.09607840162484 -19.62407530989789
5.705987707397657 17.668076034442368 14.016450553085148
9.912358322652732 20.60325160301656 114.91262486928979
63.17128727026957 19.5805220571416 64.60527160342822
73.06697113349448 29.179534145521124 -23.900908206532144
43.6016799758729 -1.4541900157928467 -11.27467662770535
20.28907375896185 50.72507409043705 1.4465768080271717
41.62062282822467 -1.4541900157928467 -3.841503014931063
11.919004062208941 33.4875819462302 62.648989203714876
17.73598075973178 40.01443197315677 108.39571424574103
53.73126936457192 39.573565822430545 91.71937025610478
68.67138591937332 19.71508277386072 12.820416243061853
41.67687745573534 41.28689956665039 129.424090040964
52.66676593788067 -2.1720196268200147 -16.888561459792985
46.8080887069622 50.02799987792969 -4.84916448315015
10.386544672052826 18.117366872030924 6.232138224903352
69.68549998011754 7.992265344118181 -12.714449687285123
41.035647092265926 -2.4541900157928467 -2.628547536967102
42.91202265197631 7.286920070648193 121.61267762565963
55.60662581477706 -0.5702420722368673 -17.41338003112479
8.944491821139648 20.434714322567874 56.3278628094929
74.08538757671633 28.97882761845469 22.983973661661558
54.57233545021519 8.197680068089763 105.20911852055328
-0.06096251125685358 21.317352483413238 -7.027868828255663
10.259252893492466 17.613087148248365 47.90440788654486
29.82148495954496 41.28689956665039 27.497798660145236
4.353190475755768 24.30955174366668 14.414858944576903
36.96496881186944 41.28689956665039 120.04953652720445
11.276427179799517 47.6288145804593 -8.11605062842177
10.066106543048578 2.8502493204096764 -6.5460152461969505
22.524699393156588 47.77801262769411 10.871457890000183
46.77952819569062 7.286920070648193 89.63523211883906
17.410144261046153 39.80040720963538 64.83103030891212
17.872597977718563 9.641139695938973 110.38802439542887
36.84752872261123 -1.4541900157928467 -3.924048198429629
51.397864625793126 -1.2884366648505738 -1.5473048445998099
46.317653799090245 51.02799987792969 -1.8163835465985407
26.303116924998136 7.2869200706481925 63.07910541570552
29.885941540881827 -2.4541900157928467 -1.9890515685517922
42.015723133457165 40.28689956665039 114.31469938707696
27.270933890215026 48.88109720021971 9.246775764812668
55.02740225591627 38.984974542143725 116.66300025680191
31.31790180988535 40.28689956665039 32.01995209856491
31.241146695626366 35.99788603803428 29.085155950749122
57.05098359726928 38.03404425618207 34.20115243196058
10.370030087572013 30.369857359092503 36.32185907157235
27.405100033672728 41.28689956665039 89.52931131042791
38.3589430687571 41.28689956665039 41.263344103212596
8.20170251392174 29.611518405019577 59.114982087825695
41.830527640096506 8.286919593811037 119.96215764274754
12.152321574053026 12.227120149858116 32.31146131222398
38.88363855738687 41.28689956665039 90.10014984082927
65.80175269005944 3.748772214782909 -10.341946346569522
8.531477457565721 24.095500946044922 25.145056708381617
22.918904802171923 40.15867143189162 39.206303547326684
36.95821225372967 41.28689956665039 135.66814939650212
48.68694054896738 -1.8041844719474736 -24.059200286865234
61.65597728581693 13.605674174158583 74.15382838669646
3.437138465364204 8.065946270121387 -30.470968623032988
21.78934095200904 40.94319738162172 59.62631073619362
63.63821962106497 26.403288060111052 28.514013915716404
32.42897652474675 8.286919593811035 113.56403190854336
15.825708542087348 38.75967518166153 22.04624187901816
2.953413682462568 37.798880599956256 8.182115030583905
60.92256418598721 34.2957880064438 55.569728853440445
6.493748425485199 4.470139844037484 -12.342697266159258
66.3318459262698 40.378169984189746 8.53415509414114
8.678364431648074 18.236427897270914 113.6751097253852
21.20338842959283 7.742383462570483 40.03160303642508
66.7753454697237 5.986729199727003 -12.39265124239768
51.43468729966861 -2.2850577853478686 -21.125072462424782
21.838604269306103 39.95262362947248 44.27966858643414
25.088956995641585 7.286920070648193 45.91909338074258
10.120843911310494 19.510282262733867 101.05118363347589
9.13246820185289 17.54496785504503 74.58521988970429
-1.0612586385234974 18.91423616201057 -5.790099834993198
18.570441461740877 8.01125491677439 87.07829251455736
0.653294020996926 16.55183641542394 -13.42338330457591
32.2727752871512 40.28689956665039 38.36479668315935
44.32400807707738 40.28689956665039 72.80392504829982
9.247610562922265 29.728229614839822 10.906883318434165
46.761088853827545 8.286919593811035 67.58910852014945
13.57179453225947 48.81863757986162 -1.5618004380462098
13.60828551002979 36.058911062825125 87.30682269424135
47.0824118010084 -1.4541900157928467 -12.566704994104832
37.42918007990045 8.286919593811035 152.78187637740544
50.03046489815446 3.903752991080456 14.160873384275439
35.83102666773289 6.546934997069873 19.801325221462097
56.0432400262884 39.77860327268948 89.6171925686851
52.5802758489467 7.857061134712291 43.80600029195395
48.2202633904324 -0.2925731340018115 7.729568916126241
47.58839084112808 6.90490051021285 93.66860283023436
10.113758349197088 29.02637238107512 109.38238122537692
8.67111936898577 18.247459894059116 94.5773351896162
59.66373105709459 12.615713953891168 110.07480611036962
11.66806823812837 33.105547741716975 59.545617681438934
16.454761613662615 49.857523903924374 -22.979283464759142
2.7626626639782756 37.43002788338873 -12.06459994481389
59.71721647848379 0.931057266777147 -12.315780017694209
28.561583148808435 3.170207805649697 13.061772071321464
63.591201782226555 23.4191067852734 98.38068589935855
27.229797572895073 -0.14578837762067842 7.955597115642902
62.86983830269602 18.072423702044517 58.344339171128524
22.75790369963385 7.136183836811472 20.65091538941583
40.648609869342295 7.286920070648195 139.60520527143532
39.60434016035202 40.28689956665039 101.3227091601808
15.608602065549006 -0.17883664325270807 -20.348508470210504
18.94107959729014 9.173910537002703 151.78015550661723
67.36524183640473 14.803077054212949 14.230598607905609
39.51424112190059 -2.4541900157928467 -0.8994655852108591
71.73870731645886 27.88266148166897 8.206278105721157
61.28575400616054 8.984044528854858 16.610974869452306
30.31250208937888 8.286919593811035 113.5578395847747
7.682379401632608 45.06981933044975 -8.166651663318602
40.737030863482325 41.28689956665039 135.46672906094605
63.74845735703259 30.705403850130317 129.93268191643452
44.38185129486167 -2.4541900157928462 -0.7692594087343917
16.18185676202928 37.82239844927973 98.38837384699076
28.539251569570936 41.286899566650405 191.64778903694975
31.854996920439994 40.28689956665039 114.0238261895839
35.10793687432097 7.286920070648193 131.57215700669468
19.67226538245248 -2.094644011993866 0.8406428586432995
49.55946165097481 51.02799987792969 -11.472413368442751
41.832126607646444 8.28447972730324 22.476903376933684
60.589272674079496 12.197791847029071 91.6978130141196
48.81514996979113 10.60600285155931 26.051727351593296
28.92228780295464 41.28689956665039 34.68880857474913
58.4854134945644 11.625913940024326 32.61931674470003
62.9447484194206 45.864479535503705 -8.035156491716968
12.68830540910264 34.65836571336638 91.8554356982435
60.156074460444486 35.30756272213077 32.38190638739988
-1.085467837683879 26.989394963300096 -17.561948563186835
11.388314042735743 15.894774943915424 10.382695713677514
48.43901525707687 40.28689956665039 145.53644648750125
17.561439269610283 38.728406027 18.59292597487536
19.966931616467605 40.30815517750371 53.30273463983284
15.350362498490048 49.539680885586854 -5.8995510314768485
10.251682232793867 18.824372628230936 45.912897404797384
7.074694445209786 9.382146131616658 11.533180752032333
56.40682678835945 8.955402004338486 98.07598885993602
29.991554591816293 -1.4541900157928465 21.833066703944073
26.329719111567325 40.2868995666504 68.0813966453774
45.239890475409645 40.2868995666504 199.30349288472323
61.36247821181442 35.355635367998296 82.60731097566654
37.35483417780717 50.02799987792969 1.335790498325517
18.567296872257014 40.56047956178616 102.42090260124421
50.82988946836289 40.05102672124952 120.89938615437339
43.563277400383825 8.286919593811035 128.41333642227295
34.22784310948654 40.28689956665038 114.36987517652736
59.38811733906839 12.310061531997112 52.76396441010562
61.29956629105169 0.6310438269527298 -0.49174145046265005
48.35987171225027 6.767954898935916 18.601804414327795
63.59120178222656 26.07518575020738 110.82749095630797
29.004914202435206 -1.4541900157928467 15.83090349701559
27.012966137439967 40.28689956665039 41.61862008939212
46.34596031413996 -2.4541900157928467 26.56532714942255
59.285365247520616 47.86643830368378 -7.083356160105182
52.43226003447755 7.828828346873631 22.940291661076174
49.4088012037019 7.286920070648195 167.05143856344213
70.87720077073193 15.385629810228293 9.512727941602389
63.80736198115776 17.755699157714844 97.401253240553
24.509854657437977 40.28689956665039 118.61154939465874
68.26835036292707 24.65555311107709 13.738702179685
71.78340670602289 34.61922783457174 -13.490988899555317
63.72731159172103 38.00530030257323 15.734373633596455
70.62371142532827 39.198977232089064 -3.7735262661886604
45.66166234487219 40.28689956665038 123.76208532128648
46.12293004032508 7.286920070648193 133.72872056459917
42.93399168430652 40.28689956665039 119.4952845595967
27.488456265434486 40.2868995666504 88.14436567445551
1.6586648167473648 13.27469154927223 1.8624720110889221
46.771769098415064 40.82464524499953 109.58165497110915
73.14864840171758 20.284389538143067 -4.888602478246904
62.010663555655725 44.31014309765955 10.27648811294758
48.46026873386829 40.28689956665039 98.03036545381553
21.04250330379826 40.800739096850435 85.83651378615806
47.4368711442968 5.890682309413998 18.790787003360656
41.00678723608187 51.0279998779297 2.000757922338222
14.349122749118145 11.955103545858403 46.72574367418446
60.89374733290657 14.23986318467485 68.59086988855887
53.284015416229444 49.68924218441833 -14.590651435064396
40.44338887267325 7.286920070648193 42.91570842025017
9.59119987487793 25.15212769506184 60.6995707065264
-0.919722548379607 18.421527300779182 -9.966537091190153
47.997242573753766 41.28689956665039 99.25325581661025
29.917399909102524 50.02799987792969 -15.785501289084138
18.107637863750142 40.24091743062165 142.2940263910357
39.42126976047031 5.2107728536831965 16.203959687902355
54.62427198873325 7.356395139308192 18.278954262983007
21.498451578134485 8.686102555709416 58.14291731569045
0.13802082498421075 24.478399276733402 6.7342445095855386
46.2785384574516 7.286920070648193 75.41787977960782
62.30829536730427 14.180506646516545 60.37777475347199
19.560220532718525 44.937057960087444 13.104487508483878
43.75585542401113 50.02799987792969 12.440036076739867
15.938646223521106 38.833392386072504 123.94576689250913
26.86173558511057 7.286920070648193 58.87584489319885
27.089551374953505 49.9621244309788 7.582141930501546
25.611886163397763 40.2868995666504 93.37267221518952
16.69977446643213 6.305562293273332 17.154504886194054
24.598009804657693 7.286920070648193 95.49705541946395
12.354994918978084 48.1875625633692 -17.591293096893352
72.28967420272937 32.85683964083963 -18.47231661487086
33.22664631306975 41.28689956665039 92.48339437154581
45.564599961844074 -2.4541900157928467 19.455349383073393
19.340395873968433 40.476064376004594 72.7475139354741
-0.14991599321365356 26.191559676633297 -2.411321173081917
57.55791376187631 -0.009025873585323196 -6.958328186780044
71.78354380296636 11.61252644459984 5.892326159057499
38.051178894052235 37.7605444930099 26.370903414828543
61.31201621720554 33.7809657407651 70.79635101918844
67.91235669852122 41.187140691053756 11.990129336202532
10.406447269822825 31.184808186933235 42.592749790701724
57.358016323366286 5.750336836557209 15.753469839357042
8.93752413134206 34.23468459178102 72.110375070723
71.9371769156901 34.08393215821844 -17.200652575302968
24.441104308375387 8.286919593811035 38.973869255717034
15.035146135218062 37.06932386937294 119.62101363795453
60.95326540580895 14.318619279390733 87.69570379325687
36.090303913258374 8.286919593811035 90.74323936250622
65.6854035320564 44.91984836969022 8.704996787940562
5.046552896814257 7.662577855393323 -9.836480972540715
10.1367128441703 29.14670956444946 37.31190952914331
6.678394372640911 44.25361254481767 -1.046344112328619
57.715105282073466 11.04262602277835 67.02222380769734
63.59120178222656 23.579247547626835 25.527658904743426
28.775925506689298 -1.4541900157928465 12.497986657902509
38.223242122838776 8.286919593811035 25.22490745183457
9.448558520839589 17.79207014939449 111.99666989011487
69.01359292116523 41.40724521472393 -11.106899730155025
47.41582691972792 6.871985374766201 106.98869750769097
28.53582211903275 7.286920070648193 46.80482312699273
72.21181196791449 33.127889005588656 -14.281446713229641
29.09359941778184 36.66023279567406 28.06523268569013
48.68515015325352 41.45972460129333 54.79687962577959
48.56298770562646 8.09079577247525 73.30290093695177
0.16892742507758152 14.631769591940662 -4.973309910310213
38.46891433745433 41.28689956665039 22.234129417433522
44.45344989981044 40.28689956665039 52.36775327026723
61.746857604054576 13.725377402677463 59.67834436730969
58.10711891318512 10.097164175206277 74.26018445245327
-0.2644729890050782 19.74383197519361 -17.645781719386953
8.967940459134102 3.7414136401226634 2.9577485361402864
10.791329584599023 33.554800469225405 112.10617731311328
22.801559276966948 50.95556094266147 0.7483794011766225
27.300029742285737 7.286920070648193 89.10506865483458
57.35338917700872 39.04704298722285 46.80696501757426
68.71516269373956 41.77561782819052 -8.544848950943315
18.09075820293338 8.336102503340424 -54.934729136569786
10.742250381480629 33.480066487806354 29.74754272672167
44.999873701907745 8.286919593811035 61.49655499840832
4.715369952810154 8.07036912132141 -15.16352619532686
38.22754263684704 3.036148557053858 14.395200507670635
45.60364491643047 51.02799987792969 2.6258732199384607
24.483777009598008 -2.4541900157928476 4.228010755036493
30.77190160131073 -1.4541900157928465 24.219154343208597
29.434781032127916 7.286920070648193 97.20019589970082
22.674350223316964 -1.3700711711111047 2.2188184879346604
55.80918570086702 50.122078199342326 -7.553930393944773
39.46863847930759 8.286919593811033 101.80198424487693
26.765791131145043 7.286920070648193 72.64629601234921
50.04763960145719 41.19983622566805 111.43697768198558
4.31877907209145 41.59265760558836 -22.765285813240443
23.927645149385242 7.286920070648193 25.38244342359153
10.182143916370487 32.62718006144655 57.50886524365147
30.08563808699349 7.286920070648193 22.694996246901116
14.090809259416051 36.79334188643075 75.01521278429203
49.49296739908416 7.268182677568487 47.18124298796293
25.655870855306944 5.721922861332604 16.99105992065359
58.55516942354917 11.678752764292302 7.9319777531213695
44.530859343212676 41.28689956665039 101.01636549528824
28.515709478508278 7.725108918648602 120.94100189208983
33.58792663811088 41.28689956665039 125.19980925561649
19.7671469876843 -1.1033419674515015 -12.102362210970911
59.13390201801784 12.117668327859542 82.70796634880733
18.451414584867504 39.312875875795676 109.99400223433622
68.93041790864311 39.67260558816656 6.1861949239981415
63.348256815311274 32.11346425784389 93.59699976364803
69.67626646329319 40.592519989302346 -19.95636363377068
52.953678034405115 40.73811677722823 66.2360451545299
58.27009538959794 37.11102663961501 121.2108274241717
20.66383577498635 -2.493894799721919 -7.3736809688221046
16.769340608768424 49.94780401764798 -1.0705726289607433
47.48263857353304 8.286919593811035 57.522627608573714
51.84609330037523 0.8706579525528686 10.82575334932687
53.593481181795525 47.1618207116272 9.749091896023078
18.668909764596474 8.22582291160792 72.6584132496646
17.692289888475425 9.759553016109354 98.60872628163638
39.538224491321024 0.8369075549866495 9.468812777784569
1.7017752901969572 13.190468832830224 -12.463274801351623
56.13140592719088 9.929677981751865 44.215181052448955
61.606219741621686 33.39218522334094 91.7849304845926
49.08314774676533 41.383808455141214 28.283846538240574
32.334548175859815 7.2869200706481925 51.37424607681915
14.843079346048615 10.459709962403743 72.4653149436941
32.724361837300485 7.5274343016270215 120.94100189208982
1.5755479779840373 37.30028051915882 -15.529251761665607
14.105555052000371 12.773572709055893 23.346900910481914
9.63140120154404 31.740308761262433 -61.409181846633444
27.462192590555837 -2.454190015792847 1.0992700004098985
29.98021434293269 8.286919593811035 193.5100144665786
63.59120178222658 23.223741077846256 36.699919216467414
38.254543814663734 50.027999877929695 12.60686958632538
24.22466139679042 -2.4541900157928467 -3.4553715023350167
63.55585380743171 22.074333733004963 70.32096685209522
47.41972905409077 -1.4541900157928465 -14.229272073772819
27.971446081812964 45.28173611119929 13.24943572864806
44.83043051261135 7.378839579005236 28.27163765761243
63.36377278229486 31.106927312749512 20.044391710758553
40.205060689105345 8.286919593811035 114.90226043282564
44.39540170752397 3.6740868376499773 15.377537076279628
31.407744788459652 8.286919593811035 54.65952938321297
61.585753182431624 1.3499654577067886 6.872456649061262
8.930862427917933 28.067630702372476 113.0760848797729
36.507751332443064 7.286920070648194 80.24889898017199
62.67621529117915 33.62004150050552 31.87146023952136
54.82503170906126 40.303509084452344 30.92756142999216
40.09792774279634 41.28689956665039 71.03403048364933
64.49502959134102 24.095500946044922 80.79918887926804
25.389391266476217 8.286919593811035 208.45437746200128
72.25895924534834 36.56233341829674 -6.980828659898259
19.725984337309065 -1.0995653890477164 -22.81476499116325
73.00729986893123 29.829835737316603 -0.38516861938694236
44.35693300348539 41.2868995666504 116.97005079497141
29.978335223825468 -1.4541900157928467 -12.545802776520796
52.11974411545285 50.14683831425221 -8.478422215841274
25.434710946838337 11.62336661747593 26.078466131189526
17.785801161712993 -0.6311431376840962 -20.41880689963915
10.167826354442928 29.309819761187242 75.77542074094153
67.28737168758693 39.40625788151901 8.342101565547921
47.14655004697751 50.02799987792969 -3.533290939647222
73.58536334701803 16.623899658492665 -31.168648295243052
40.24325617457687 -1.4541900157928467 -1.2603054245820235
54.92742724814249 -0.7656112619015878 -21.501486765630425
44.70841024934711 6.355568120840615 112.14734061504065
42.64394536744281 8.286919593811035 143.0992593595186
22.8203934594537 40.13988217365937 83.15287946212527
9.316823909129976 30.09109081192053 118.76610742907167
9.59119987487793 25.803603874175337 87.81944609949716
9.623116520016556 26.454220136465707 77.82232051824613
64.13524856759372 28.677459707653952 113.08894436387547
52.296875572154036 39.89734920154586 91.33659871998258
23.216465854640226 8.358398536766263 88.85077280676593
58.29041737448252 1.0141895137847685 8.52620871794112
41.9547827659449 -2.376837687756126 -24.059200286865234
